ncols         435
nrows         31
xllcorner     200370
yllcorner     2550
cellsize      10.000000
NODATA_value  -9999
-99.00 -99.00 -99.00 -99.00 -99.00 -99.00 -99.00 -99.00 -99.00 -99.00 -99.00 -99.00 -99.00 -99.00 -99.00 -99.00 -99.00 -99.00 -99.00 -99.00 -99.00 -99.00 -99.00 -99.00 -99.00 -99.00 -99.00 -99.00 -99.00 -99.00 -99.00 -99.00 -99.00 -99.00 -99.00 -99.00 -99.00 -99.00 -99.00 -99.00 -99.00 -99.00 -99.00 -99.00 -99.00 -99.00 -99.00 -99.00 -99.00 -99.00 -99.00 -99.00 -99.00 -99.00 -99.00 -99.00 -99.00 -99.00 -99.00 -99.00 -99.00 -99.00 -99.00 -99.00 -99.00 -99.00 -99.00 -99.00 -99.00 -99.00 -99.00 -99.00 -99.00 -99.00 -99.00 -99.00 -99.00 -99.00 -99.00 -99.00 -99.00 -99.00 -99.00 -99.00 -99.00 -99.00 -99.00 -99.00 -99.00 -99.00 -99.00 -99.00 -99.00 -99.00 -99.00 -99.00 -99.00 -99.00 -99.00 -99.00 -99.00 -99.00 -99.00 -99.00 -99.00 -99.00 -99.00 -99.00 -99.00 -99.00 -99.00 -99.00 -99.00 -99.00 -99.00 -99.00 -99.00 -99.00 -99.00 -99.00 -99.00 -99.00 -99.00 -99.00 -99.00 -99.00 -99.00 -99.00 -99.00 -99.00 -99.00 -99.00 -99.00 -99.00 -99.00 -99.00 -99.00 -99.00 -99.00 -99.00 -99.00 -99.00 -99.00 -99.00 -99.00 -99.00 -99.00 -99.00 -99.00 -99.00 -99.00 -99.00 -99.00 -99.00 -99.00 -99.00 -99.00 -99.00 -99.00 -99.00 -97.40 -96.10 -94.60 -93.00 -91.30 -89.50 -87.60 -85.80 -84.00 -82.40 -81.00 -79.90 -79.20 -78.60 -78.20 -77.70 -77.20 -76.60 -76.00 -75.40 -74.70 -74.00 -73.30 -72.50 -71.80 -70.90 -70.20 -69.50 -68.90 -68.30 -67.80 -67.40 -67.20 -67.10 -67.20 -67.30 -67.40 -67.60 -67.70 -67.90 -68.10 -68.40 -68.70 -69.10 -69.50 -70.00 -70.40 -71.10 -71.80 -72.60 -73.30 -74.10 -74.80 -75.50 -76.20 -77.00 -77.80 -78.70 -79.90 -81.50 -83.40 -85.70 -88.30 -91.00 -93.60 -96.00 -98.10 -99.00 -99.00 -99.00 -99.00 -99.00 -99.00 -99.00 -99.00 -99.00 -99.00 -99.00 -99.00 -99.00 -99.00 -99.00 -99.00 -99.00 -99.00 -99.00 -99.00 -99.00 -99.00 -99.00 -99.00 -99.00 -99.00 -99.00 -99.00 -99.00 -99.00 -99.00 -99.00 -99.00 -99.00 -94.40 -91.10 -87.50 -83.70 -79.90 -75.90 -71.80 -67.40 -63.00 -58.60 -54.60 -51.10 -48.30 -45.90 -43.80 -41.90 -40.30 -38.80 -37.60 -36.50 -35.50 -34.60 -33.80 -33.00 -32.10 -31.10 -30.00 -28.90 -27.70 -26.40 -25.20 -23.90 -22.70 -21.70 -20.60 -19.90 -19.20 -18.70 -18.20 -17.70 -17.00 -16.30 -15.60 -14.90 -14.20 -13.40 -12.70 -11.80 -11.10 -10.70 -10.40 -10.20 -10.10 -10.00 -10.00 -10.10 -10.30 -10.90 -11.10 -10.90 -10.50 -10.00 -10.30 -10.30 -10.10 -10.00 -9.90 -9.50 -9.30 -9.20 -9.00 -8.70 -8.60 -8.60 -8.60 -8.50 -8.50 -8.50 -8.60 -8.60 -8.60 -8.30 -8.10 -7.90 -7.70 -7.20 -6.60 -6.20 -5.70 -5.10 -4.80 -4.20 -3.60 -3.10 -2.60 -1.90 -1.00 2.10 3.50 2.80 4.60 6.10 7.20 8.50 10.00 11.50 13.40 17.80 20.10 20.80 29.10 32.50 30.90 34.00 42.50 38.50 38.70 38.00 36.60 35.60 35.20 35.20 34.30 31.30 28.69 26.83 23.89 20.12 16.10 12.70 9.50 6.40 2.30 2.40 1.10 -0.30 -2.60 -4.80 -6.50 -7.90 -8.90 -9.60 -10.30 -11.40 -12.30 -13.30 -14.30 -14.90 -15.20 -15.30 -15.50 -16.30 -17.60 -19.20 -20.60 -21.30 -20.90 -19.20 -16.70 -14.40 -14.20 -17.30 -21.60 -27.70 -34.70 -41.10 -46.00 -49.80 -52.80 -55.40 -57.60 -59.60 -61.30 -62.90
-99.00 -99.00 -99.00 -99.00 -99.00 -99.00 -99.00 -99.00 -99.00 -99.00 -99.00 -99.00 -99.00 -99.00 -99.00 -99.00 -99.00 -99.00 -99.00 -99.00 -99.00 -99.00 -99.00 -99.00 -99.00 -99.00 -99.00 -99.00 -99.00 -99.00 -99.00 -99.00 -99.00 -99.00 -99.00 -99.00 -99.00 -99.00 -99.00 -99.00 -99.00 -99.00 -99.00 -99.00 -99.00 -99.00 -99.00 -99.00 -99.00 -99.00 -99.00 -99.00 -99.00 -99.00 -99.00 -99.00 -99.00 -99.00 -99.00 -99.00 -99.00 -99.00 -99.00 -99.00 -99.00 -99.00 -99.00 -99.00 -99.00 -99.00 -99.00 -99.00 -99.00 -99.00 -99.00 -99.00 -99.00 -99.00 -99.00 -99.00 -99.00 -99.00 -99.00 -99.00 -99.00 -99.00 -99.00 -99.00 -99.00 -99.00 -99.00 -99.00 -99.00 -99.00 -99.00 -99.00 -99.00 -99.00 -99.00 -99.00 -99.00 -99.00 -99.00 -99.00 -99.00 -99.00 -99.00 -99.00 -99.00 -99.00 -99.00 -99.00 -99.00 -99.00 -99.00 -99.00 -99.00 -99.00 -99.00 -99.00 -99.00 -99.00 -99.00 -99.00 -99.00 -99.00 -99.00 -99.00 -99.00 -99.00 -99.00 -99.00 -99.00 -99.00 -99.00 -99.00 -99.00 -99.00 -99.00 -99.00 -99.00 -99.00 -99.00 -99.00 -99.00 -99.00 -99.00 -99.00 -99.00 -99.00 -99.00 -99.00 -99.00 -99.00 -99.00 -99.00 -99.00 -99.00 -99.00 -99.00 -99.00 -96.20 -94.80 -93.10 -91.40 -89.60 -87.70 -85.80 -84.10 -82.40 -81.00 -79.90 -79.20 -78.60 -78.00 -77.50 -77.00 -76.40 -75.80 -75.20 -74.60 -73.90 -73.20 -72.50 -71.80 -71.00 -70.30 -69.70 -69.10 -68.50 -68.10 -67.80 -67.70 -67.60 -67.70 -67.80 -68.00 -68.10 -68.30 -68.40 -68.60 -68.90 -69.20 -69.60 -70.10 -70.60 -71.20 -71.70 -72.40 -73.10 -73.90 -74.60 -75.20 -75.90 -76.50 -77.20 -77.90 -78.80 -79.90 -81.50 -83.40 -85.80 -88.50 -91.30 -94.10 -96.60 -99.00 -99.00 -99.00 -99.00 -99.00 -99.00 -99.00 -99.00 -99.00 -99.00 -99.00 -99.00 -99.00 -99.00 -99.00 -99.00 -99.00 -99.00 -99.00 -99.00 -99.00 -99.00 -99.00 -99.00 -99.00 -99.00 -99.00 -99.00 -99.00 -99.00 -99.00 -99.00 -99.00 -99.00 -99.00 -94.60 -91.20 -87.60 -83.90 -80.20 -76.50 -72.60 -68.50 -64.30 -60.00 -56.10 -52.50 -49.60 -47.10 -45.00 -43.10 -41.50 -40.10 -38.90 -37.90 -37.10 -36.40 -35.70 -35.00 -34.30 -33.40 -32.50 -31.50 -30.40 -29.20 -27.90 -26.70 -25.40 -24.20 -23.00 -21.90 -20.90 -20.30 -20.00 -19.60 -18.80 -18.20 -17.80 -17.40 -17.10 -16.60 -16.10 -15.40 -14.80 -14.00 -13.30 -12.80 -12.30 -12.00 -11.80 -11.70 -11.80 -12.00 -12.10 -11.90 -11.40 -10.90 -11.00 -11.00 -10.90 -10.70 -10.50 -10.00 -10.00 -10.00 -9.90 -9.50 -9.50 -9.80 -9.90 -10.00 -10.00 -10.00 -10.00 -9.90 -9.80 -9.40 -9.20 -9.10 -8.90 -8.40 -7.80 -7.30 -6.80 -6.20 -5.70 -5.00 -4.30 -3.80 -3.30 -2.80 -2.00 -1.00 0.00 2.20 2.50 3.80 4.70 5.70 7.10 8.50 10.10 9.20 14.80 23.90 28.30 24.90 28.60 32.10 35.40 34.00 32.70 34.10 32.40 31.80 32.40 34.20 34.50 32.00 29.30 27.42 24.39 20.77 16.60 13.40 10.40 7.60 6.30 2.40 1.70 -0.10 -2.50 -4.80 -6.60 -8.00 -9.10 -9.90 -10.90 -12.00 -12.90 -13.90 -14.80 -15.30 -15.50 -15.50 -15.70 -16.50 -18.20 -20.40 -22.70 -24.30 -24.50 -22.90 -19.90 -16.80 -16.60 -19.10 -22.00 -26.00 -33.10 -40.40 -46.30 -50.40 -53.50 -56.10 -58.30 -60.30 -62.00 -63.60
-99.00 -99.00 -99.00 -99.00 -99.00 -99.00 -99.00 -99.00 -99.00 -99.00 -99.00 -99.00 -99.00 -99.00 -99.00 -99.00 -99.00 -99.00 -99.00 -99.00 -99.00 -99.00 -99.00 -99.00 -99.00 -99.00 -99.00 -99.00 -99.00 -99.00 -99.00 -99.00 -99.00 -99.00 -99.00 -99.00 -99.00 -99.00 -99.00 -99.00 -99.00 -99.00 -99.00 -99.00 -99.00 -99.00 -99.00 -99.00 -99.00 -99.00 -99.00 -99.00 -99.00 -99.00 -99.00 -99.00 -99.00 -99.00 -99.00 -99.00 -99.00 -99.00 -99.00 -99.00 -99.00 -99.00 -99.00 -99.00 -99.00 -99.00 -99.00 -99.00 -99.00 -99.00 -99.00 -99.00 -99.00 -99.00 -99.00 -99.00 -99.00 -99.00 -99.00 -99.00 -99.00 -99.00 -99.00 -99.00 -99.00 -99.00 -99.00 -99.00 -99.00 -99.00 -99.00 -99.00 -99.00 -99.00 -99.00 -99.00 -99.00 -99.00 -99.00 -99.00 -99.00 -99.00 -99.00 -99.00 -99.00 -99.00 -99.00 -99.00 -99.00 -99.00 -99.00 -99.00 -99.00 -99.00 -99.00 -99.00 -99.00 -99.00 -99.00 -99.00 -99.00 -99.00 -99.00 -99.00 -99.00 -99.00 -99.00 -99.00 -99.00 -99.00 -99.00 -99.00 -99.00 -99.00 -99.00 -99.00 -99.00 -99.00 -99.00 -99.00 -99.00 -99.00 -99.00 -99.00 -99.00 -99.00 -99.00 -99.00 -99.00 -99.00 -99.00 -99.00 -99.00 -99.00 -99.00 -99.00 -99.00 -96.40 -94.90 -93.30 -91.50 -89.70 -87.80 -86.00 -84.20 -82.50 -81.10 -80.00 -79.20 -78.60 -78.00 -77.50 -76.90 -76.30 -75.70 -75.10 -74.50 -73.80 -73.20 -72.50 -71.80 -71.10 -70.40 -69.80 -69.30 -68.80 -68.40 -68.20 -68.10 -68.10 -68.20 -68.30 -68.50 -68.70 -68.90 -69.00 -69.20 -69.40 -69.80 -70.10 -70.60 -71.10 -71.70 -72.30 -72.90 -73.60 -74.30 -75.00 -75.60 -76.20 -76.80 -77.40 -78.00 -78.80 -79.90 -81.50 -83.50 -86.00 -88.70 -91.60 -94.50 -97.20 -99.00 -99.00 -99.00 -99.00 -99.00 -99.00 -99.00 -99.00 -99.00 -99.00 -99.00 -99.00 -99.00 -99.00 -99.00 -99.00 -99.00 -99.00 -99.00 -99.00 -99.00 -99.00 -99.00 -99.00 -99.00 -99.00 -99.00 -99.00 -99.00 -99.00 -99.00 -99.00 -99.00 -99.00 -99.00 -94.60 -91.20 -87.70 -84.00 -80.40 -76.90 -73.40 -69.60 -65.50 -61.50 -57.50 -53.90 -50.80 -48.30 -46.10 -44.30 -42.70 -41.40 -40.30 -39.40 -38.70 -38.00 -37.50 -36.80 -36.10 -35.30 -34.50 -33.60 -32.60 -31.50 -30.40 -29.20 -28.00 -26.80 -25.70 -24.60 -23.50 -22.70 -22.10 -21.40 -20.60 -20.20 -20.00 -19.90 -19.80 -19.60 -19.40 -19.00 -18.30 -17.30 -16.20 -15.40 -14.70 -14.10 -13.60 -13.30 -13.20 -13.10 -13.00 -12.60 -12.20 -11.80 -11.70 -11.60 -11.50 -11.40 -11.10 -10.80 -10.70 -10.60 -10.40 -10.00 -10.00 -10.50 -10.90 -11.00 -11.10 -11.10 -11.10 -10.90 -10.60 -10.10 -10.00 -10.00 -9.90 -9.30 -8.80 -8.30 -7.80 -7.20 -6.50 -5.80 -5.00 -4.40 -3.90 -3.50 -3.00 -2.00 -0.90 0.20 3.60 5.60 3.40 4.10 5.10 6.20 7.30 6.80 9.20 11.40 18.20 22.00 26.00 29.70 32.10 32.50 27.30 29.60 28.40 29.00 31.10 34.10 34.90 33.10 30.20 28.00 24.85 21.20 17.00 14.10 11.40 9.00 7.50 4.30 2.10 -0.10 -2.40 -4.80 -6.60 -8.10 -9.40 -10.10 -11.40 -12.50 -13.40 -14.20 -15.00 -15.50 -15.60 -15.60 -15.70 -16.70 -18.80 -21.80 -25.30 -28.30 -29.70 -28.70 -25.60 -22.10 -20.90 -22.10 -24.60 -27.10 -33.80 -40.90 -46.90 -51.10 -54.30 -56.80 -59.10 -61.00 -62.80 -64.40
-99.00 -99.00 -99.00 -99.00 -99.00 -99.00 -99.00 -99.00 -99.00 -99.00 -99.00 -99.00 -99.00 -99.00 -99.00 -99.00 -99.00 -99.00 -99.00 -99.00 -99.00 -99.00 -99.00 -99.00 -99.00 -99.00 -99.00 -99.00 -99.00 -99.00 -99.00 -99.00 -99.00 -99.00 -99.00 -99.00 -99.00 -99.00 -99.00 -99.00 -99.00 -99.00 -99.00 -99.00 -99.00 -99.00 -99.00 -99.00 -99.00 -99.00 -99.00 -99.00 -99.00 -99.00 -99.00 -99.00 -99.00 -99.00 -99.00 -99.00 -99.00 -99.00 -99.00 -99.00 -99.00 -99.00 -99.00 -99.00 -99.00 -99.00 -99.00 -99.00 -99.00 -99.00 -99.00 -99.00 -99.00 -99.00 -99.00 -99.00 -99.00 -99.00 -99.00 -99.00 -99.00 -99.00 -99.00 -99.00 -99.00 -99.00 -99.00 -99.00 -99.00 -99.00 -99.00 -99.00 -99.00 -99.00 -99.00 -99.00 -99.00 -99.00 -99.00 -99.00 -99.00 -99.00 -99.00 -99.00 -99.00 -99.00 -99.00 -99.00 -99.00 -99.00 -99.00 -99.00 -99.00 -99.00 -99.00 -99.00 -99.00 -99.00 -99.00 -99.00 -99.00 -99.00 -99.00 -99.00 -99.00 -99.00 -99.00 -99.00 -99.00 -99.00 -99.00 -99.00 -99.00 -99.00 -99.00 -99.00 -99.00 -99.00 -99.00 -99.00 -99.00 -99.00 -99.00 -99.00 -99.00 -99.00 -99.00 -99.00 -99.00 -99.00 -99.00 -99.00 -99.00 -99.00 -99.00 -99.00 -99.00 -96.60 -95.20 -93.50 -91.80 -89.90 -88.00 -86.10 -84.30 -82.70 -81.20 -80.10 -79.40 -78.80 -78.10 -77.50 -76.80 -76.20 -75.60 -75.00 -74.40 -73.70 -73.10 -72.40 -71.80 -71.10 -70.50 -70.00 -69.50 -69.10 -68.80 -68.70 -68.60 -68.70 -68.70 -68.90 -69.00 -69.20 -69.40 -69.60 -69.80 -70.00 -70.30 -70.60 -71.00 -71.50 -72.10 -72.70 -73.40 -74.00 -74.70 -75.30 -76.00 -76.60 -77.10 -77.70 -78.20 -78.90 -80.00 -81.60 -83.70 -86.30 -89.10 -92.10 -95.00 -97.60 -99.00 -99.00 -99.00 -99.00 -99.00 -99.00 -99.00 -99.00 -99.00 -99.00 -99.00 -99.00 -99.00 -99.00 -99.00 -99.00 -99.00 -99.00 -99.00 -99.00 -99.00 -99.00 -99.00 -99.00 -99.00 -99.00 -99.00 -99.00 -99.00 -99.00 -99.00 -99.00 -99.00 -99.00 -99.00 -94.60 -91.30 -87.70 -84.20 -80.60 -77.50 -74.20 -70.60 -66.80 -62.90 -59.00 -55.40 -52.20 -49.60 -47.40 -45.60 -44.00 -42.70 -41.70 -40.80 -40.10 -39.50 -38.90 -38.20 -37.40 -36.60 -35.70 -34.90 -33.90 -33.00 -32.00 -31.00 -30.00 -29.00 -28.10 -27.10 -26.00 -25.10 -24.30 -23.50 -22.80 -22.30 -22.00 -21.90 -21.80 -21.60 -21.40 -21.00 -20.40 -19.60 -18.60 -17.60 -16.70 -15.90 -15.20 -14.70 -14.40 -14.10 -13.80 -13.30 -12.90 -12.50 -12.30 -12.20 -12.10 -12.00 -11.80 -11.60 -11.40 -11.30 -11.10 -10.90 -11.00 -11.30 -11.70 -11.90 -12.10 -12.10 -12.00 -11.80 -11.40 -11.00 -10.80 -10.70 -10.40 -10.00 -9.50 -9.10 -8.70 -8.10 -7.40 -6.60 -5.70 -5.00 -4.50 -4.20 -3.80 -2.80 -1.50 0.00 3.10 4.00 3.70 3.30 4.00 4.70 5.10 6.00 7.10 9.10 16.90 19.10 23.10 26.60 28.20 27.90 26.30 24.70 24.40 26.60 30.20 34.00 35.20 34.10 29.10 26.95 25.60 21.75 17.30 14.60 12.00 9.70 7.10 3.70 2.20 0.00 -2.20 -4.40 -6.20 -8.00 -9.50 -10.40 -11.50 -12.70 -13.80 -14.70 -15.30 -15.70 -15.80 -15.70 -15.90 -17.00 -19.50 -23.30 -28.00 -32.70 -35.70 -35.70 -32.90 -29.20 -26.60 -26.30 -27.50 -30.70 -36.80 -43.10 -48.20 -52.10 -55.20 -57.70 -59.90 -61.90 -63.70 -65.30
-99.00 -99.00 -99.00 -99.00 -99.00 -99.00 -99.00 -99.00 -99.00 -99.00 -99.00 -99.00 -99.00 -99.00 -99.00 -99.00 -99.00 -99.00 -99.00 -99.00 -99.00 -99.00 -99.00 -99.00 -99.00 -99.00 -99.00 -99.00 -99.00 -99.00 -99.00 -99.00 -99.00 -99.00 -99.00 -99.00 -99.00 -99.00 -99.00 -99.00 -99.00 -99.00 -99.00 -99.00 -99.00 -99.00 -99.00 -99.00 -99.00 -99.00 -99.00 -99.00 -99.00 -99.00 -99.00 -99.00 -99.00 -99.00 -99.00 -99.00 -99.00 -99.00 -99.00 -99.00 -99.00 -99.00 -99.00 -99.00 -99.00 -99.00 -99.00 -99.00 -99.00 -99.00 -99.00 -99.00 -99.00 -99.00 -99.00 -99.00 -99.00 -99.00 -99.00 -99.00 -99.00 -99.00 -99.00 -99.00 -99.00 -99.00 -99.00 -99.00 -99.00 -99.00 -99.00 -99.00 -99.00 -99.00 -99.00 -99.00 -99.00 -99.00 -99.00 -99.00 -99.00 -99.00 -99.00 -99.00 -99.00 -99.00 -99.00 -99.00 -99.00 -99.00 -99.00 -99.00 -99.00 -99.00 -99.00 -99.00 -99.00 -99.00 -99.00 -99.00 -99.00 -99.00 -99.00 -99.00 -99.00 -99.00 -99.00 -99.00 -99.00 -99.00 -99.00 -99.00 -99.00 -99.00 -99.00 -99.00 -99.00 -99.00 -99.00 -99.00 -99.00 -99.00 -99.00 -99.00 -99.00 -99.00 -99.00 -99.00 -99.00 -99.00 -99.00 -99.00 -99.00 -99.00 -99.00 -99.00 -99.00 -96.90 -95.40 -93.80 -92.00 -90.20 -88.20 -86.40 -84.60 -82.90 -81.60 -80.50 -79.90 -79.00 -78.30 -77.50 -76.80 -76.20 -75.50 -74.90 -74.20 -73.60 -73.00 -72.40 -71.80 -71.20 -70.70 -70.20 -69.80 -69.40 -69.20 -69.10 -69.10 -69.20 -69.30 -69.40 -69.60 -69.70 -70.00 -70.20 -70.40 -70.60 -70.80 -71.10 -71.50 -71.90 -72.50 -73.10 -73.70 -74.30 -75.00 -75.60 -76.20 -76.90 -77.50 -78.00 -78.50 -79.00 -80.00 -81.80 -84.10 -86.80 -89.70 -92.60 -95.40 -97.90 -99.00 -99.00 -99.00 -99.00 -99.00 -99.00 -99.00 -99.00 -99.00 -99.00 -99.00 -99.00 -99.00 -99.00 -99.00 -99.00 -99.00 -99.00 -99.00 -99.00 -99.00 -99.00 -99.00 -99.00 -99.00 -99.00 -99.00 -99.00 -99.00 -99.00 -99.00 -99.00 -99.00 -99.00 -99.00 -94.40 -91.20 -87.90 -84.50 -81.10 -78.20 -75.10 -71.70 -68.00 -64.30 -60.50 -56.90 -53.70 -50.90 -48.70 -46.90 -45.40 -44.10 -43.10 -42.20 -41.40 -40.70 -39.90 -39.00 -37.90 -36.80 -35.90 -34.90 -34.10 -33.20 -32.40 -31.70 -30.90 -30.20 -29.50 -28.90 -27.70 -26.80 -25.90 -25.20 -24.50 -24.00 -23.60 -23.20 -23.00 -22.70 -22.30 -21.90 -21.40 -20.70 -19.90 -19.10 -18.10 -17.20 -16.50 -15.80 -15.30 -14.90 -14.40 -13.90 -13.50 -13.10 -12.90 -12.80 -12.70 -12.60 -12.50 -12.30 -12.20 -12.10 -12.00 -11.90 -12.00 -12.20 -12.50 -12.80 -12.90 -12.90 -12.80 -12.60 -12.20 -11.80 -11.50 -11.30 -10.90 -10.50 -10.00 -9.90 -9.50 -9.10 -8.40 -7.50 -6.60 -5.70 -5.10 -5.00 -4.70 -3.50 -2.00 -0.30 1.80 1.80 2.40 2.80 3.20 3.60 3.70 4.30 5.70 8.30 7.90 15.30 20.20 25.90 28.70 26.90 21.30 20.20 21.30 24.50 29.40 33.70 35.40 32.60 27.70 27.71 26.10 22.01 17.60 14.80 12.30 9.90 7.30 3.80 2.20 0.20 -1.50 -3.50 -5.40 -7.30 -8.80 -9.90 -11.10 -12.70 -14.20 -15.30 -15.90 -16.10 -16.20 -16.00 -16.20 -17.40 -20.10 -24.60 -30.50 -37.00 -41.10 -41.40 -39.80 -36.80 -34.20 -33.00 -34.30 -37.30 -41.70 -46.20 -50.20 -53.60 -56.50 -58.80 -60.90 -62.80 -64.60 -66.30
-99.00 -99.00 -99.00 -99.00 -99.00 -99.00 -99.00 -99.00 -99.00 -99.00 -99.00 -99.00 -99.00 -99.00 -99.00 -99.00 -99.00 -99.00 -99.00 -99.00 -99.00 -99.00 -99.00 -99.00 -99.00 -99.00 -99.00 -99.00 -99.00 -99.00 -99.00 -99.00 -99.00 -99.00 -99.00 -99.00 -99.00 -99.00 -99.00 -99.00 -99.00 -99.00 -99.00 -99.00 -99.00 -99.00 -99.00 -99.00 -99.00 -99.00 -99.00 -99.00 -99.00 -99.00 -99.00 -99.00 -99.00 -99.00 -99.00 -99.00 -99.00 -99.00 -99.00 -99.00 -99.00 -99.00 -99.00 -99.00 -99.00 -99.00 -99.00 -99.00 -99.00 -99.00 -99.00 -99.00 -99.00 -99.00 -99.00 -99.00 -99.00 -99.00 -99.00 -99.00 -99.00 -99.00 -99.00 -99.00 -99.00 -99.00 -99.00 -99.00 -99.00 -99.00 -99.00 -99.00 -99.00 -99.00 -99.00 -99.00 -99.00 -99.00 -99.00 -99.00 -99.00 -99.00 -99.00 -99.00 -99.00 -99.00 -99.00 -99.00 -99.00 -99.00 -99.00 -99.00 -99.00 -99.00 -99.00 -99.00 -99.00 -99.00 -99.00 -99.00 -99.00 -99.00 -99.00 -99.00 -99.00 -99.00 -99.00 -99.00 -99.00 -99.00 -99.00 -99.00 -99.00 -99.00 -99.00 -99.00 -99.00 -99.00 -99.00 -99.00 -99.00 -99.00 -99.00 -99.00 -99.00 -99.00 -99.00 -99.00 -99.00 -99.00 -99.00 -99.00 -99.00 -99.00 -99.00 -99.00 -99.00 -97.20 -95.80 -94.20 -92.40 -90.50 -88.50 -86.60 -84.80 -83.20 -81.80 -80.80 -80.00 -79.10 -78.30 -77.50 -76.80 -76.10 -75.40 -74.80 -74.10 -73.50 -73.00 -72.40 -71.80 -71.30 -70.90 -70.50 -70.10 -69.80 -69.70 -69.60 -69.60 -69.70 -69.80 -70.00 -70.10 -70.30 -70.50 -70.70 -71.00 -71.20 -71.50 -71.70 -72.00 -72.30 -72.80 -73.40 -74.00 -74.60 -75.10 -75.80 -76.40 -77.10 -77.80 -78.40 -78.90 -79.40 -80.20 -82.30 -84.70 -87.50 -90.40 -93.30 -96.10 -99.00 -99.00 -99.00 -99.00 -99.00 -99.00 -99.00 -99.00 -99.00 -99.00 -99.00 -99.00 -99.00 -99.00 -99.00 -99.00 -99.00 -99.00 -99.00 -99.00 -99.00 -99.00 -99.00 -99.00 -99.00 -99.00 -99.00 -99.00 -99.00 -99.00 -99.00 -99.00 -99.00 -99.00 -99.00 -96.80 -94.20 -91.20 -88.00 -84.90 -81.90 -79.10 -76.00 -72.70 -69.20 -65.60 -62.00 -58.50 -55.30 -52.50 -50.20 -48.40 -46.90 -45.60 -44.50 -43.50 -42.60 -41.60 -40.50 -39.20 -37.50 -36.00 -34.60 -33.50 -32.60 -31.90 -31.30 -30.80 -30.30 -29.90 -29.40 -28.80 -28.00 -27.30 -26.60 -25.90 -25.30 -24.70 -24.20 -23.70 -23.20 -22.80 -22.30 -21.90 -21.40 -20.90 -20.30 -19.90 -19.00 -18.10 -17.30 -16.60 -16.00 -15.50 -15.00 -14.40 -13.90 -13.60 -13.40 -13.20 -13.10 -13.10 -13.00 -13.00 -12.90 -12.90 -12.80 -12.80 -12.90 -13.10 -13.30 -13.50 -13.60 -13.60 -13.50 -13.30 -13.00 -12.60 -12.20 -11.90 -11.50 -11.00 -10.60 -10.40 -10.00 -9.90 -9.30 -8.40 -7.50 -6.70 -6.00 -5.60 -5.00 -4.10 -2.70 -1.20 0.10 1.30 1.90 2.40 2.80 2.90 3.00 3.20 4.20 6.10 8.20 13.20 22.10 24.20 24.30 23.00 16.50 16.10 18.80 23.20 28.70 33.20 35.10 32.60 30.20 26.71 24.90 21.71 17.70 15.00 12.40 9.90 7.40 3.80 2.30 0.70 -0.60 -2.80 -4.90 -6.60 -8.00 -9.20 -10.50 -12.50 -14.50 -15.90 -16.70 -17.00 -16.90 -16.50 -16.60 -17.90 -20.90 -25.90 -33.00 -40.20 -44.10 -44.80 -44.30 -43.20 -41.60 -40.90 -41.70 -43.50 -46.40 -49.60 -52.70 -55.50 -58.00 -60.20 -62.10 -63.90 -65.70 -67.40
-99.00 -99.00 -99.00 -99.00 -99.00 -99.00 -99.00 -99.00 -99.00 -99.00 -99.00 -99.00 -99.00 -99.00 -99.00 -99.00 -99.00 -99.00 -99.00 -99.00 -99.00 -99.00 -99.00 -99.00 -99.00 -99.00 -99.00 -99.00 -99.00 -99.00 -99.00 -99.00 -99.00 -99.00 -99.00 -99.00 -99.00 -99.00 -99.00 -99.00 -99.00 -99.00 -99.00 -99.00 -99.00 -99.00 -99.00 -99.00 -99.00 -99.00 -99.00 -99.00 -99.00 -99.00 -99.00 -99.00 -99.00 -99.00 -99.00 -99.00 -99.00 -99.00 -99.00 -99.00 -99.00 -99.00 -99.00 -99.00 -99.00 -99.00 -99.00 -99.00 -99.00 -99.00 -99.00 -99.00 -99.00 -99.00 -99.00 -99.00 -99.00 -99.00 -99.00 -99.00 -99.00 -99.00 -99.00 -99.00 -99.00 -99.00 -99.00 -99.00 -99.00 -99.00 -99.00 -99.00 -99.00 -99.00 -99.00 -99.00 -99.00 -99.00 -99.00 -99.00 -99.00 -99.00 -99.00 -99.00 -99.00 -99.00 -99.00 -99.00 -99.00 -99.00 -99.00 -99.00 -99.00 -99.00 -99.00 -99.00 -99.00 -99.00 -99.00 -99.00 -99.00 -99.00 -99.00 -99.00 -99.00 -99.00 -99.00 -99.00 -99.00 -99.00 -99.00 -99.00 -99.00 -99.00 -99.00 -99.00 -99.00 -99.00 -99.00 -99.00 -99.00 -99.00 -99.00 -99.00 -99.00 -99.00 -99.00 -99.00 -99.00 -99.00 -99.00 -99.00 -99.00 -99.00 -99.00 -99.00 -99.00 -99.00 -96.20 -94.60 -92.80 -90.80 -88.80 -86.80 -84.90 -83.30 -82.00 -80.90 -80.00 -79.10 -78.30 -77.40 -76.70 -76.00 -75.30 -74.70 -74.10 -73.50 -72.90 -72.40 -72.00 -71.50 -71.10 -70.80 -70.50 -70.20 -70.10 -70.10 -70.10 -70.20 -70.40 -70.50 -70.70 -70.90 -71.00 -71.30 -71.60 -71.90 -72.10 -72.40 -72.60 -72.90 -73.30 -73.80 -74.30 -74.80 -75.30 -75.90 -76.50 -77.20 -78.00 -78.80 -79.40 -79.90 -80.60 -83.00 -85.60 -88.50 -91.40 -94.20 -97.00 -99.00 -99.00 -99.00 -99.00 -99.00 -99.00 -99.00 -99.00 -99.00 -99.00 -99.00 -99.00 -99.00 -99.00 -99.00 -99.00 -99.00 -99.00 -99.00 -99.00 -99.00 -99.00 -99.00 -99.00 -99.00 -99.00 -99.00 -99.00 -99.00 -99.00 -99.00 -99.00 -99.00 -99.00 -99.00 -96.40 -93.90 -91.10 -88.20 -85.20 -82.40 -79.60 -76.60 -73.40 -70.10 -66.70 -63.30 -60.10 -57.00 -54.20 -51.90 -50.00 -48.40 -47.10 -45.90 -44.80 -43.60 -42.20 -40.60 -38.60 -36.30 -34.10 -32.20 -30.80 -29.90 -29.40 -29.00 -28.80 -28.50 -28.30 -27.90 -27.50 -27.00 -26.50 -25.90 -25.40 -24.80 -24.20 -23.60 -23.00 -22.50 -22.10 -21.70 -21.30 -20.80 -20.50 -20.00 -19.70 -19.00 -18.40 -17.70 -17.00 -16.40 -15.80 -15.30 -14.80 -14.30 -14.00 -13.70 -13.60 -13.50 -13.50 -13.50 -13.60 -13.60 -13.60 -13.60 -13.60 -13.70 -13.90 -14.00 -14.20 -14.30 -14.20 -14.10 -13.90 -13.60 -13.20 -12.80 -12.40 -12.00 -11.60 -11.20 -10.90 -10.60 -10.40 -9.90 -9.30 -8.50 -7.70 -7.00 -6.40 -5.80 -4.90 -3.80 -2.40 -0.70 0.40 1.30 1.90 2.40 2.60 2.60 2.70 3.20 4.50 6.80 6.30 13.90 18.50 20.10 13.30 12.10 13.40 17.30 27.50 27.90 31.90 33.80 33.50 29.60 28.89 25.05 21.09 17.80 15.10 12.50 9.90 7.30 2.80 2.40 0.90 -0.30 -2.50 -4.70 -6.20 -7.50 -8.70 -10.20 -12.50 -14.80 -16.50 -17.40 -17.70 -17.40 -17.00 -17.10 -18.50 -21.80 -27.30 -34.50 -41.00 -43.40 -45.40 -46.70 -47.10 -46.90 -46.80 -47.30 -48.60 -50.60 -52.90 -55.30 -57.60 -59.80 -61.70 -63.50 -65.20 -66.90 -68.60
-99.00 -99.00 -99.00 -99.00 -99.00 -99.00 -99.00 -99.00 -99.00 -99.00 -99.00 -99.00 -99.00 -99.00 -99.00 -99.00 -99.00 -99.00 -99.00 -99.00 -99.00 -99.00 -99.00 -99.00 -99.00 -99.00 -99.00 -99.00 -99.00 -99.00 -99.00 -99.00 -99.00 -99.00 -99.00 -99.00 -99.00 -99.00 -99.00 -99.00 -99.00 -99.00 -99.00 -99.00 -99.00 -99.00 -99.00 -99.00 -99.00 -99.00 -99.00 -99.00 -99.00 -99.00 -99.00 -99.00 -99.00 -99.00 -99.00 -99.00 -99.00 -99.00 -99.00 -99.00 -99.00 -99.00 -99.00 -99.00 -99.00 -99.00 -99.00 -99.00 -99.00 -99.00 -99.00 -99.00 -99.00 -99.00 -99.00 -99.00 -99.00 -99.00 -99.00 -99.00 -99.00 -99.00 -99.00 -99.00 -99.00 -99.00 -99.00 -99.00 -99.00 -99.00 -99.00 -99.00 -99.00 -99.00 -99.00 -99.00 -99.00 -99.00 -99.00 -99.00 -99.00 -99.00 -99.00 -99.00 -99.00 -99.00 -99.00 -99.00 -99.00 -99.00 -99.00 -99.00 -99.00 -99.00 -99.00 -99.00 -99.00 -99.00 -99.00 -99.00 -99.00 -99.00 -99.00 -99.00 -99.00 -99.00 -99.00 -99.00 -99.00 -99.00 -99.00 -99.00 -99.00 -99.00 -99.00 -99.00 -99.00 -99.00 -99.00 -99.00 -99.00 -99.00 -99.00 -99.00 -99.00 -99.00 -99.00 -99.00 -99.00 -99.00 -99.00 -99.00 -99.00 -99.00 -99.00 -99.00 -99.00 -99.00 -96.70 -95.10 -93.30 -91.20 -89.10 -87.00 -85.00 -83.30 -81.90 -80.80 -80.00 -79.10 -78.20 -77.30 -76.60 -75.80 -75.20 -74.60 -74.00 -73.50 -73.00 -72.60 -72.10 -71.80 -71.40 -71.10 -70.90 -70.70 -70.60 -70.60 -70.70 -70.80 -70.90 -71.10 -71.30 -71.40 -71.60 -71.90 -72.20 -72.50 -72.90 -73.10 -73.30 -73.60 -73.90 -74.40 -74.80 -75.10 -75.50 -76.00 -76.60 -77.30 -78.00 -78.90 -79.90 -80.70 -81.00 -83.50 -86.60 -89.70 -92.60 -95.30 -99.00 -99.00 -99.00 -99.00 -99.00 -99.00 -99.00 -99.00 -99.00 -99.00 -99.00 -99.00 -99.00 -99.00 -99.00 -99.00 -99.00 -99.00 -99.00 -99.00 -99.00 -99.00 -99.00 -99.00 -99.00 -99.00 -99.00 -99.00 -99.00 -99.00 -99.00 -99.00 -99.00 -99.00 -99.00 -99.00 -96.00 -93.60 -90.90 -88.20 -85.40 -82.60 -79.90 -77.00 -74.00 -70.90 -67.70 -64.60 -61.50 -58.60 -55.90 -53.60 -51.60 -49.90 -48.50 -47.30 -46.00 -44.60 -42.70 -40.50 -37.70 -34.70 -31.70 -29.10 -27.40 -26.50 -26.10 -26.00 -25.90 -25.80 -25.70 -25.60 -25.40 -25.00 -24.70 -24.30 -23.90 -23.50 -23.00 -22.40 -21.70 -21.30 -21.10 -20.80 -20.50 -20.00 -19.90 -19.60 -19.30 -18.90 -18.30 -17.70 -17.20 -16.60 -16.00 -15.50 -15.00 -14.60 -14.30 -14.00 -13.90 -13.80 -13.90 -13.90 -14.00 -14.10 -14.20 -14.20 -14.30 -14.40 -14.50 -14.70 -14.70 -14.80 -14.80 -14.60 -14.40 -14.10 -13.80 -13.40 -12.90 -12.50 -12.10 -11.70 -11.40 -11.10 -10.90 -10.50 -9.90 -9.30 -8.60 -7.90 -7.30 -6.70 -6.00 -5.10 -4.10 -2.40 -0.80 0.10 1.10 1.90 2.30 2.30 2.40 2.70 3.40 5.00 4.30 6.10 6.60 10.60 9.10 8.70 8.50 19.40 22.60 26.50 29.70 31.20 31.30 30.10 27.70 24.40 19.80 17.90 15.20 12.60 9.90 7.30 2.80 2.40 0.90 -0.30 -2.40 -4.60 -6.10 -7.20 -8.50 -10.10 -12.60 -15.10 -16.90 -17.90 -18.10 -17.70 -17.30 -17.60 -19.30 -23.00 -29.00 -36.10 -42.30 -44.70 -46.30 -48.40 -49.60 -50.20 -50.70 -51.40 -52.60 -54.10 -55.90 -57.80 -59.70 -61.60 -63.40 -65.00 -66.60 -68.20 -69.80
-99.00 -99.00 -99.00 -99.00 -99.00 -99.00 -99.00 -99.00 -99.00 -99.00 -99.00 -99.00 -99.00 -99.00 -99.00 -99.00 -99.00 -99.00 -99.00 -99.00 -99.00 -99.00 -99.00 -99.00 -99.00 -99.00 -99.00 -99.00 -99.00 -99.00 -99.00 -99.00 -99.00 -99.00 -99.00 -99.00 -99.00 -99.00 -99.00 -99.00 -99.00 -99.00 -99.00 -99.00 -99.00 -99.00 -99.00 -99.00 -99.00 -99.00 -99.00 -99.00 -99.00 -99.00 -99.00 -99.00 -99.00 -99.00 -99.00 -99.00 -99.00 -99.00 -99.00 -99.00 -99.00 -99.00 -99.00 -99.00 -99.00 -99.00 -99.00 -99.00 -99.00 -99.00 -99.00 -99.00 -99.00 -99.00 -99.00 -99.00 -99.00 -99.00 -99.00 -99.00 -99.00 -99.00 -99.00 -99.00 -99.00 -99.00 -99.00 -99.00 -99.00 -99.00 -99.00 -99.00 -99.00 -99.00 -99.00 -99.00 -99.00 -99.00 -99.00 -99.00 -99.00 -99.00 -99.00 -99.00 -99.00 -99.00 -99.00 -99.00 -99.00 -99.00 -99.00 -99.00 -99.00 -99.00 -99.00 -99.00 -99.00 -99.00 -99.00 -99.00 -99.00 -99.00 -99.00 -99.00 -99.00 -99.00 -99.00 -99.00 -99.00 -99.00 -99.00 -99.00 -99.00 -99.00 -99.00 -99.00 -99.00 -99.00 -99.00 -99.00 -99.00 -99.00 -99.00 -99.00 -99.00 -99.00 -99.00 -99.00 -99.00 -99.00 -99.00 -99.00 -99.00 -99.00 -99.00 -99.00 -99.00 -99.00 -99.00 -95.70 -93.80 -91.60 -89.40 -87.10 -85.00 -83.20 -81.70 -80.60 -79.80 -78.90 -78.00 -77.20 -76.40 -75.70 -75.10 -74.60 -74.10 -73.60 -73.20 -72.80 -72.40 -72.10 -71.80 -71.50 -71.30 -71.20 -71.10 -71.20 -71.20 -71.30 -71.50 -71.60 -71.80 -72.00 -72.30 -72.50 -72.90 -73.30 -73.60 -74.00 -74.20 -74.40 -74.70 -75.10 -75.40 -75.60 -75.90 -76.30 -76.90 -77.50 -78.20 -78.90 -79.70 -80.60 -82.00 -84.90 -88.30 -91.40 -94.30 -96.70 -99.00 -99.00 -99.00 -99.00 -99.00 -99.00 -99.00 -99.00 -99.00 -99.00 -99.00 -99.00 -99.00 -99.00 -99.00 -99.00 -99.00 -99.00 -99.00 -99.00 -99.00 -99.00 -99.00 -99.00 -99.00 -99.00 -99.00 -99.00 -99.00 -99.00 -99.00 -99.00 -99.00 -99.00 -99.00 -99.00 -95.60 -93.30 -90.70 -88.10 -85.40 -82.70 -80.00 -77.20 -74.40 -71.50 -68.60 -65.70 -62.80 -60.10 -57.50 -55.20 -53.10 -51.40 -50.00 -48.60 -47.30 -45.60 -43.40 -40.50 -37.00 -33.10 -29.20 -25.90 -23.90 -23.00 -22.70 -22.70 -22.80 -22.90 -22.90 -22.80 -22.70 -22.60 -22.40 -22.20 -22.00 -21.70 -21.40 -20.90 -20.20 -20.00 -20.00 -20.00 -19.90 -19.60 -19.40 -19.10 -18.90 -18.50 -18.10 -17.60 -17.10 -16.60 -16.10 -15.60 -15.20 -14.80 -14.50 -14.20 -14.10 -14.10 -14.10 -14.20 -14.30 -14.50 -14.60 -14.70 -14.80 -14.90 -15.00 -15.10 -15.20 -15.20 -15.20 -15.00 -14.80 -14.50 -14.20 -13.80 -13.40 -12.90 -12.50 -12.20 -11.90 -11.60 -11.30 -10.90 -10.50 -9.90 -9.30 -8.70 -8.10 -7.60 -7.00 -6.30 -5.60 -4.40 -2.80 -1.40 -0.10 1.00 1.70 2.00 2.20 2.30 2.60 3.60 5.00 4.50 5.50 6.90 6.50 7.30 7.50 20.70 22.20 24.20 26.80 28.00 28.60 28.00 26.40 23.80 20.70 18.00 15.40 12.70 10.00 7.30 2.70 2.30 0.70 -0.50 -2.60 -4.70 -6.10 -7.30 -8.60 -10.30 -12.80 -15.40 -17.20 -18.20 -18.30 -17.90 -17.60 -18.10 -20.20 -24.50 -30.80 -37.80 -43.80 -46.70 -48.40 -50.20 -51.50 -52.50 -53.50 -54.50 -55.60 -57.00 -58.50 -60.10 -61.70 -63.40 -65.00 -66.60 -68.10 -69.60 -71.20
-99.00 -99.00 -99.00 -99.00 -99.00 -99.00 -99.00 -99.00 -99.00 -99.00 -99.00 -99.00 -99.00 -99.00 -99.00 -99.00 -99.00 -99.00 -99.00 -99.00 -99.00 -99.00 -99.00 -99.00 -99.00 -99.00 -99.00 -99.00 -99.00 -99.00 -99.00 -99.00 -99.00 -99.00 -99.00 -99.00 -99.00 -99.00 -99.00 -99.00 -99.00 -99.00 -99.00 -99.00 -99.00 -99.00 -99.00 -99.00 -99.00 -99.00 -99.00 -99.00 -99.00 -99.00 -99.00 -99.00 -99.00 -99.00 -99.00 -99.00 -99.00 -99.00 -99.00 -99.00 -99.00 -99.00 -99.00 -99.00 -99.00 -99.00 -99.00 -99.00 -99.00 -99.00 -99.00 -99.00 -99.00 -99.00 -99.00 -99.00 -99.00 -99.00 -99.00 -99.00 -99.00 -99.00 -99.00 -99.00 -99.00 -99.00 -99.00 -99.00 -99.00 -99.00 -99.00 -99.00 -99.00 -99.00 -99.00 -99.00 -99.00 -99.00 -99.00 -99.00 -99.00 -99.00 -99.00 -99.00 -99.00 -99.00 -99.00 -99.00 -99.00 -99.00 -99.00 -99.00 -99.00 -99.00 -99.00 -99.00 -99.00 -99.00 -99.00 -99.00 -99.00 -99.00 -99.00 -99.00 -99.00 -99.00 -99.00 -99.00 -99.00 -99.00 -99.00 -99.00 -99.00 -99.00 -99.00 -99.00 -99.00 -99.00 -99.00 -99.00 -99.00 -99.00 -99.00 -99.00 -99.00 -99.00 -99.00 -99.00 -99.00 -99.00 -99.00 -99.00 -99.00 -99.00 -99.00 -99.00 -99.00 -99.00 -99.00 -96.40 -94.40 -92.10 -89.70 -87.20 -84.90 -82.90 -81.30 -80.10 -79.30 -78.50 -77.70 -77.00 -76.30 -75.70 -75.10 -74.60 -74.20 -73.80 -73.40 -73.00 -72.70 -72.40 -72.10 -71.90 -71.70 -71.70 -71.60 -71.70 -71.80 -71.90 -72.00 -72.20 -72.40 -72.60 -72.90 -73.20 -73.60 -74.10 -74.50 -75.00 -75.20 -75.40 -75.80 -76.20 -76.40 -76.60 -76.80 -77.20 -77.80 -78.30 -79.00 -79.80 -80.90 -82.50 -84.70 -87.60 -90.80 -93.90 -99.00 -99.00 -99.00 -99.00 -99.00 -99.00 -99.00 -99.00 -99.00 -99.00 -99.00 -99.00 -99.00 -99.00 -99.00 -99.00 -99.00 -99.00 -99.00 -99.00 -99.00 -99.00 -99.00 -99.00 -99.00 -99.00 -99.00 -99.00 -99.00 -99.00 -99.00 -99.00 -99.00 -99.00 -99.00 -99.00 -99.00 -99.00 -95.20 -92.90 -90.50 -87.90 -85.30 -82.60 -80.00 -77.30 -74.60 -71.90 -69.20 -66.60 -64.00 -61.40 -58.90 -56.60 -54.60 -52.80 -51.40 -50.00 -48.60 -46.80 -44.30 -40.90 -36.70 -32.00 -27.20 -23.10 -20.80 -20.00 -19.90 -19.90 -20.00 -20.10 -20.20 -20.20 -20.20 -20.20 -20.10 -20.10 -20.10 -20.00 -20.00 -19.80 -19.40 -19.10 -19.10 -19.20 -19.10 -19.00 -18.80 -18.60 -18.40 -18.10 -17.70 -17.30 -16.90 -16.40 -16.00 -15.60 -15.20 -14.90 -14.60 -14.40 -14.30 -14.30 -14.30 -14.40 -14.60 -14.70 -14.90 -15.10 -15.20 -15.30 -15.40 -15.50 -15.50 -15.50 -15.50 -15.30 -15.10 -14.80 -14.50 -14.10 -13.70 -13.30 -12.90 -12.50 -12.20 -11.90 -11.70 -11.30 -11.00 -10.50 -9.90 -9.40 -8.90 -8.40 -7.90 -7.40 -6.80 -5.90 -4.60 -3.20 -1.70 -0.40 0.50 1.30 1.90 1.90 2.00 2.60 3.60 4.60 5.20 5.20 5.40 6.60 9.00 18.50 20.10 21.00 22.90 23.80 25.00 25.40 24.90 23.10 20.50 18.30 14.80 13.00 9.00 7.10 2.60 2.10 0.30 -1.10 -2.90 -4.80 -6.40 -7.70 -9.00 -10.70 -13.20 -15.70 -17.40 -18.30 -18.30 -17.90 -17.70 -18.40 -20.90 -25.70 -32.30 -39.30 -45.30 -48.50 -50.50 -52.10 -53.30 -54.40 -55.60 -56.80 -58.10 -59.30 -60.70 -62.10 -63.60 -65.10 -66.70 -68.10 -69.60 -71.00 -72.50
-99.00 -99.00 -99.00 -99.00 -99.00 -99.00 -99.00 -99.00 -99.00 -99.00 -99.00 -99.00 -99.00 -99.00 -99.00 -99.00 -99.00 -99.00 -99.00 -99.00 -99.00 -99.00 -99.00 -99.00 -99.00 -99.00 -99.00 -99.00 -99.00 -99.00 -99.00 -99.00 -99.00 -99.00 -99.00 -99.00 -99.00 -99.00 -99.00 -99.00 -99.00 -99.00 -99.00 -99.00 -99.00 -99.00 -99.00 -99.00 -99.00 -99.00 -99.00 -99.00 -99.00 -99.00 -99.00 -99.00 -99.00 -99.00 -99.00 -99.00 -99.00 -99.00 -99.00 -99.00 -99.00 -99.00 -99.00 -99.00 -99.00 -99.00 -99.00 -99.00 -99.00 -99.00 -99.00 -99.00 -99.00 -99.00 -99.00 -99.00 -99.00 -99.00 -99.00 -99.00 -99.00 -99.00 -99.00 -99.00 -99.00 -99.00 -99.00 -99.00 -99.00 -99.00 -99.00 -99.00 -99.00 -99.00 -99.00 -99.00 -99.00 -99.00 -99.00 -99.00 -99.00 -99.00 -99.00 -99.00 -99.00 -99.00 -99.00 -99.00 -99.00 -99.00 -99.00 -99.00 -99.00 -99.00 -99.00 -99.00 -99.00 -99.00 -99.00 -99.00 -99.00 -99.00 -99.00 -99.00 -99.00 -99.00 -99.00 -99.00 -99.00 -99.00 -99.00 -99.00 -99.00 -99.00 -99.00 -99.00 -99.00 -99.00 -99.00 -99.00 -99.00 -99.00 -99.00 -99.00 -99.00 -99.00 -99.00 -99.00 -99.00 -99.00 -99.00 -99.00 -99.00 -99.00 -99.00 -99.00 -99.00 -99.00 -99.00 -99.00 -95.10 -92.70 -90.00 -87.20 -84.70 -82.50 -80.90 -79.80 -78.90 -78.10 -77.40 -76.70 -76.20 -75.60 -75.20 -74.80 -74.40 -74.00 -73.70 -73.40 -73.10 -72.80 -72.60 -72.40 -72.20 -72.10 -72.20 -72.20 -72.30 -72.40 -72.60 -72.80 -73.00 -73.20 -73.60 -74.00 -74.50 -75.00 -75.60 -76.10 -76.50 -76.80 -77.10 -77.60 -77.90 -78.10 -78.40 -78.80 -79.60 -80.20 -80.90 -82.00 -83.70 -85.90 -88.30 -91.10 -93.90 -99.00 -99.00 -99.00 -99.00 -99.00 -99.00 -99.00 -99.00 -99.00 -99.00 -99.00 -99.00 -99.00 -99.00 -99.00 -99.00 -99.00 -99.00 -99.00 -99.00 -99.00 -99.00 -99.00 -99.00 -99.00 -99.00 -99.00 -99.00 -99.00 -99.00 -99.00 -99.00 -99.00 -99.00 -99.00 -99.00 -99.00 -99.00 -96.90 -94.90 -92.60 -90.20 -87.70 -85.20 -82.60 -79.90 -77.40 -74.80 -72.30 -69.80 -67.30 -64.90 -62.50 -60.20 -57.90 -55.90 -54.10 -52.70 -51.40 -50.00 -48.20 -45.60 -41.90 -37.30 -31.90 -26.50 -21.90 -19.40 -18.30 -17.90 -17.90 -18.00 -18.10 -18.20 -18.30 -18.40 -18.40 -18.50 -18.60 -18.60 -18.70 -18.80 -18.70 -18.50 -18.40 -18.40 -18.50 -18.40 -18.40 -18.20 -18.10 -17.90 -17.60 -17.30 -17.00 -16.60 -16.30 -15.90 -15.50 -15.20 -15.00 -14.70 -14.60 -14.50 -14.40 -14.50 -14.60 -14.70 -14.90 -15.10 -15.30 -15.50 -15.60 -15.70 -15.80 -15.80 -15.80 -15.70 -15.60 -15.30 -15.10 -14.70 -14.30 -13.90 -13.60 -13.20 -12.80 -12.50 -12.30 -12.00 -11.70 -11.40 -10.90 -10.50 -9.90 -9.50 -9.00 -8.70 -8.30 -7.80 -7.10 -6.10 -4.80 -3.40 -2.00 -0.40 0.60 1.40 1.60 1.70 2.00 2.80 3.60 4.10 4.40 5.10 6.60 9.00 15.10 17.00 17.10 18.70 20.10 21.40 22.50 22.70 22.00 20.40 18.80 16.30 12.20 7.90 6.70 4.10 1.80 0.00 -1.60 -3.30 -5.10 -7.00 -8.50 -10.00 -11.70 -13.90 -16.10 -17.60 -18.30 -18.30 -17.90 -17.80 -18.70 -21.50 -26.80 -33.60 -40.70 -46.60 -50.10 -52.30 -53.90 -55.10 -56.30 -57.60 -58.80 -60.10 -61.30 -62.60 -64.00 -65.30 -66.70 -68.20 -69.60 -71.00 -72.40 -73.80
-99.00 -99.00 -99.00 -99.00 -99.00 -99.00 -99.00 -99.00 -99.00 -99.00 -99.00 -99.00 -99.00 -99.00 -99.00 -99.00 -99.00 -99.00 -99.00 -99.00 -99.00 -99.00 -99.00 -99.00 -99.00 -99.00 -99.00 -99.00 -99.00 -99.00 -99.00 -99.00 -99.00 -99.00 -99.00 -99.00 -99.00 -99.00 -99.00 -99.00 -99.00 -99.00 -99.00 -99.00 -99.00 -99.00 -99.00 -99.00 -99.00 -99.00 -99.00 -99.00 -99.00 -99.00 -99.00 -99.00 -99.00 -99.00 -99.00 -99.00 -99.00 -99.00 -99.00 -99.00 -99.00 -99.00 -99.00 -99.00 -99.00 -99.00 -99.00 -99.00 -99.00 -99.00 -99.00 -99.00 -99.00 -99.00 -99.00 -99.00 -99.00 -99.00 -99.00 -99.00 -99.00 -99.00 -99.00 -99.00 -99.00 -99.00 -99.00 -99.00 -99.00 -99.00 -99.00 -99.00 -99.00 -99.00 -99.00 -99.00 -99.00 -99.00 -99.00 -99.00 -99.00 -99.00 -99.00 -99.00 -99.00 -99.00 -99.00 -99.00 -99.00 -99.00 -99.00 -99.00 -99.00 -99.00 -99.00 -99.00 -99.00 -99.00 -99.00 -99.00 -99.00 -99.00 -99.00 -99.00 -99.00 -99.00 -99.00 -99.00 -99.00 -99.00 -99.00 -99.00 -99.00 -99.00 -99.00 -99.00 -99.00 -99.00 -99.00 -99.00 -99.00 -99.00 -99.00 -99.00 -99.00 -99.00 -99.00 -99.00 -99.00 -99.00 -99.00 -99.00 -99.00 -99.00 -99.00 -99.00 -99.00 -99.00 -99.00 -99.00 -95.90 -93.30 -90.40 -87.30 -84.40 -82.00 -80.20 -79.10 -78.30 -77.60 -77.10 -76.50 -76.10 -75.70 -75.30 -75.00 -74.60 -74.40 -74.10 -73.80 -73.50 -73.20 -73.00 -72.80 -72.70 -72.60 -72.60 -72.70 -72.80 -73.00 -73.10 -73.30 -73.60 -73.90 -74.30 -74.80 -75.50 -76.20 -76.90 -77.60 -78.00 -78.40 -78.80 -79.50 -80.00 -80.30 -80.80 -81.40 -82.50 -83.50 -84.60 -86.00 -87.80 -90.00 -92.40 -94.80 -99.00 -99.00 -99.00 -99.00 -99.00 -99.00 -99.00 -99.00 -99.00 -99.00 -99.00 -99.00 -99.00 -99.00 -99.00 -99.00 -99.00 -99.00 -99.00 -99.00 -99.00 -99.00 -99.00 -99.00 -99.00 -99.00 -99.00 -99.00 -99.00 -99.00 -99.00 -99.00 -99.00 -99.00 -99.00 -99.00 -99.00 -99.00 -99.00 -96.70 -94.60 -92.40 -90.00 -87.60 -85.10 -82.50 -79.90 -77.40 -75.00 -72.60 -70.30 -68.00 -65.80 -63.50 -61.30 -59.00 -57.00 -55.30 -53.90 -52.70 -51.50 -49.80 -47.30 -43.60 -38.70 -33.00 -27.10 -22.30 -19.40 -17.80 -17.10 -16.80 -16.80 -16.80 -16.90 -17.00 -17.10 -17.20 -17.40 -17.50 -17.60 -17.70 -17.80 -17.90 -17.80 -17.80 -17.80 -17.80 -17.80 -17.80 -17.70 -17.50 -17.30 -17.10 -16.90 -16.60 -16.40 -16.10 -15.80 -15.50 -15.20 -15.00 -14.80 -14.70 -14.60 -14.60 -14.70 -14.80 -14.90 -15.10 -15.30 -15.50 -15.70 -15.80 -15.90 -16.00 -16.00 -16.00 -15.90 -15.70 -15.50 -15.20 -14.90 -14.50 -14.10 -13.80 -13.40 -13.10 -12.80 -12.60 -12.30 -12.10 -11.70 -11.40 -10.90 -10.40 -10.00 -9.60 -9.30 -9.00 -8.60 -8.10 -7.30 -6.20 -5.00 -3.80 -1.80 -0.20 0.60 1.10 1.50 2.00 2.60 3.20 3.60 4.00 4.60 5.70 7.20 14.00 15.70 16.30 14.20 16.20 18.00 19.60 20.10 20.20 20.10 19.40 17.80 15.30 9.50 5.90 3.00 1.00 -0.40 -2.10 -3.90 -5.80 -7.90 -9.70 -11.20 -12.80 -14.70 -16.50 -17.80 -18.30 -18.30 -17.90 -18.00 -19.10 -22.10 -27.80 -34.90 -42.00 -47.80 -51.40 -53.80 -55.50 -56.80 -58.00 -59.30 -60.50 -61.80 -63.00 -64.30 -65.50 -66.80 -68.20 -69.50 -70.90 -72.30 -73.70 -75.00
-99.00 -99.00 -99.00 -99.00 -99.00 -99.00 -99.00 -99.00 -99.00 -99.00 -99.00 -99.00 -99.00 -99.00 -99.00 -99.00 -99.00 -99.00 -99.00 -99.00 -99.00 -99.00 -99.00 -99.00 -99.00 -99.00 -99.00 -99.00 -99.00 -99.00 -99.00 -99.00 -99.00 -99.00 -99.00 -99.00 -99.00 -99.00 -99.00 -99.00 -99.00 -99.00 -99.00 -99.00 -99.00 -99.00 -99.00 -99.00 -99.00 -99.00 -99.00 -99.00 -99.00 -99.00 -99.00 -99.00 -99.00 -99.00 -99.00 -99.00 -99.00 -99.00 -99.00 -99.00 -99.00 -99.00 -99.00 -99.00 -99.00 -99.00 -99.00 -99.00 -99.00 -99.00 -99.00 -99.00 -99.00 -99.00 -99.00 -99.00 -99.00 -99.00 -99.00 -99.00 -99.00 -99.00 -99.00 -99.00 -99.00 -99.00 -99.00 -99.00 -99.00 -99.00 -99.00 -99.00 -99.00 -99.00 -99.00 -99.00 -99.00 -99.00 -99.00 -99.00 -99.00 -99.00 -99.00 -99.00 -99.00 -99.00 -99.00 -99.00 -99.00 -99.00 -99.00 -99.00 -99.00 -99.00 -99.00 -99.00 -99.00 -99.00 -99.00 -99.00 -99.00 -99.00 -99.00 -99.00 -99.00 -99.00 -99.00 -99.00 -99.00 -99.00 -99.00 -99.00 -99.00 -99.00 -99.00 -99.00 -99.00 -99.00 -99.00 -99.00 -99.00 -99.00 -99.00 -99.00 -99.00 -99.00 -99.00 -99.00 -99.00 -99.00 -99.00 -99.00 -99.00 -99.00 -99.00 -99.00 -99.00 -99.00 -99.00 -99.00 -99.00 -94.20 -90.90 -87.40 -84.20 -81.50 -79.70 -78.50 -77.80 -77.20 -76.80 -76.40 -76.10 -75.80 -75.50 -75.20 -75.00 -74.70 -74.40 -74.20 -73.90 -73.60 -73.40 -73.20 -73.10 -73.10 -73.10 -73.20 -73.30 -73.50 -73.60 -73.90 -74.20 -74.60 -75.10 -75.80 -76.60 -77.40 -78.40 -79.40 -80.00 -80.40 -81.00 -82.00 -82.80 -83.50 -84.30 -85.30 -86.50 -87.80 -89.10 -90.60 -92.40 -94.40 -99.00 -99.00 -99.00 -99.00 -99.00 -99.00 -99.00 -99.00 -99.00 -99.00 -99.00 -99.00 -99.00 -99.00 -99.00 -99.00 -99.00 -99.00 -99.00 -99.00 -99.00 -99.00 -99.00 -99.00 -99.00 -99.00 -99.00 -99.00 -99.00 -99.00 -99.00 -99.00 -99.00 -99.00 -99.00 -99.00 -99.00 -99.00 -99.00 -99.00 -99.00 -96.50 -94.40 -92.20 -89.90 -87.40 -85.00 -82.40 -80.00 -77.50 -75.20 -73.00 -70.80 -68.60 -66.50 -64.40 -62.20 -60.00 -57.90 -56.20 -54.90 -53.90 -52.80 -51.40 -49.20 -45.70 -41.00 -35.20 -29.10 -24.10 -20.60 -18.40 -17.20 -16.60 -16.30 -16.20 -16.20 -16.30 -16.40 -16.50 -16.60 -16.70 -16.90 -17.00 -17.10 -17.20 -17.20 -17.20 -17.30 -17.30 -17.30 -17.30 -17.20 -17.00 -16.90 -16.70 -16.50 -16.30 -16.10 -15.90 -15.60 -15.40 -15.20 -15.00 -14.90 -14.80 -14.80 -14.80 -14.80 -14.90 -15.10 -15.30 -15.50 -15.60 -15.80 -16.00 -16.10 -16.10 -16.10 -16.10 -16.00 -15.80 -15.60 -15.30 -15.00 -14.70 -14.30 -14.00 -13.70 -13.40 -13.10 -12.90 -12.70 -12.40 -12.20 -11.80 -11.40 -10.90 -10.40 -10.00 -9.90 -9.60 -9.30 -8.90 -8.30 -7.30 -6.10 -4.70 -2.90 -1.40 -0.30 0.10 0.80 1.50 2.00 2.70 3.20 3.60 4.00 4.50 8.20 9.80 16.60 18.80 9.70 13.80 14.40 16.90 17.50 18.20 19.50 17.60 17.10 14.20 10.20 5.40 2.30 0.20 -1.20 -2.90 -4.80 -6.90 -9.20 -10.80 -12.20 -13.70 -15.30 -16.80 -17.90 -18.40 -18.40 -18.20 -18.40 -19.80 -23.00 -29.00 -36.40 -43.50 -48.80 -52.50 -55.00 -56.80 -58.20 -59.50 -60.70 -62.00 -63.20 -64.40 -65.70 -66.90 -68.20 -69.50 -70.80 -72.20 -73.50 -74.80 -76.20
-99.00 -99.00 -99.00 -99.00 -99.00 -99.00 -99.00 -99.00 -99.00 -99.00 -99.00 -99.00 -99.00 -99.00 -99.00 -99.00 -99.00 -99.00 -99.00 -99.00 -99.00 -99.00 -99.00 -99.00 -99.00 -99.00 -99.00 -99.00 -99.00 -99.00 -99.00 -99.00 -99.00 -99.00 -99.00 -99.00 -99.00 -99.00 -99.00 -99.00 -99.00 -99.00 -99.00 -99.00 -99.00 -99.00 -99.00 -99.00 -99.00 -99.00 -99.00 -99.00 -99.00 -99.00 -99.00 -99.00 -99.00 -99.00 -99.00 -99.00 -99.00 -99.00 -99.00 -99.00 -99.00 -99.00 -99.00 -99.00 -99.00 -99.00 -99.00 -99.00 -99.00 -99.00 -99.00 -99.00 -99.00 -99.00 -99.00 -99.00 -99.00 -99.00 -99.00 -99.00 -99.00 -99.00 -99.00 -99.00 -99.00 -99.00 -99.00 -99.00 -99.00 -99.00 -99.00 -99.00 -99.00 -99.00 -99.00 -99.00 -99.00 -99.00 -99.00 -99.00 -99.00 -99.00 -99.00 -99.00 -99.00 -99.00 -99.00 -99.00 -99.00 -99.00 -99.00 -99.00 -99.00 -99.00 -99.00 -99.00 -99.00 -99.00 -99.00 -99.00 -99.00 -99.00 -99.00 -99.00 -99.00 -99.00 -99.00 -99.00 -99.00 -99.00 -99.00 -99.00 -99.00 -99.00 -99.00 -99.00 -99.00 -99.00 -99.00 -99.00 -99.00 -99.00 -99.00 -99.00 -99.00 -99.00 -99.00 -99.00 -99.00 -99.00 -99.00 -99.00 -99.00 -99.00 -99.00 -99.00 -99.00 -99.00 -99.00 -99.00 -99.00 -99.00 -91.60 -87.70 -83.90 -80.80 -79.00 -78.00 -77.30 -76.90 -76.60 -76.40 -76.20 -76.00 -75.70 -75.50 -75.30 -75.00 -74.80 -74.50 -74.20 -74.00 -73.70 -73.60 -73.50 -73.50 -73.60 -73.70 -73.80 -74.00 -74.20 -74.50 -74.90 -75.40 -76.10 -76.90 -77.90 -78.90 -80.20 -81.40 -82.40 -83.20 -84.10 -85.20 -86.30 -87.30 -88.40 -89.70 -91.00 -92.40 -93.80 -99.00 -99.00 -99.00 -99.00 -99.00 -99.00 -99.00 -99.00 -99.00 -99.00 -99.00 -99.00 -99.00 -99.00 -99.00 -99.00 -99.00 -99.00 -99.00 -99.00 -99.00 -99.00 -99.00 -99.00 -99.00 -99.00 -99.00 -99.00 -99.00 -99.00 -99.00 -99.00 -99.00 -99.00 -99.00 -99.00 -99.00 -99.00 -99.00 -99.00 -99.00 -99.00 -99.00 -99.00 -96.30 -94.30 -92.10 -89.80 -87.30 -84.90 -82.40 -80.00 -77.60 -75.40 -73.30 -71.20 -69.20 -67.20 -65.20 -63.10 -60.90 -58.80 -57.00 -55.70 -54.80 -53.80 -52.60 -50.80 -48.00 -43.80 -38.50 -32.60 -27.00 -22.90 -20.00 -18.10 -17.00 -16.40 -16.10 -15.90 -15.90 -16.00 -16.00 -16.10 -16.20 -16.30 -16.40 -16.60 -16.60 -16.70 -16.70 -16.80 -16.80 -16.80 -16.80 -16.70 -16.60 -16.50 -16.40 -16.20 -16.10 -15.90 -15.70 -15.50 -15.40 -15.20 -15.10 -15.00 -15.00 -15.00 -15.00 -15.00 -15.10 -15.30 -15.40 -15.60 -15.80 -16.00 -16.10 -16.20 -16.30 -16.30 -16.20 -16.10 -15.90 -15.70 -15.50 -15.10 -14.80 -14.50 -14.20 -13.90 -13.60 -13.40 -13.20 -13.10 -12.90 -12.60 -12.30 -11.90 -11.40 -11.00 -10.60 -10.30 -10.00 -9.90 -9.50 -9.10 -8.10 -6.80 -5.30 -4.00 -3.00 -2.10 -1.40 -0.90 -0.30 0.60 1.70 2.60 3.10 3.30 3.50 3.60 3.80 4.10 4.90 3.30 3.50 6.10 14.10 17.10 17.20 19.10 16.60 16.20 11.90 8.90 5.10 2.10 0.00 -1.70 -3.50 -5.50 -7.90 -10.00 -11.50 -12.80 -14.20 -15.60 -16.90 -17.90 -18.40 -18.70 -18.80 -19.30 -20.80 -24.30 -30.60 -37.90 -44.80 -49.90 -53.50 -56.00 -57.90 -59.40 -60.70 -62.00 -63.20 -64.40 -65.70 -66.90 -68.10 -69.40 -70.70 -71.90 -73.30 -74.60 -75.90 -77.30
-99.00 -99.00 -99.00 -99.00 -99.00 -99.00 -99.00 -99.00 -99.00 -99.00 -99.00 -99.00 -99.00 -99.00 -99.00 -99.00 -99.00 -99.00 -99.00 -99.00 -99.00 -99.00 -99.00 -99.00 -99.00 -99.00 -99.00 -99.00 -99.00 -99.00 -99.00 -99.00 -99.00 -99.00 -99.00 -99.00 -99.00 -99.00 -99.00 -99.00 -99.00 -99.00 -99.00 -99.00 -99.00 -99.00 -99.00 -99.00 -99.00 -99.00 -99.00 -99.00 -99.00 -99.00 -99.00 -99.00 -99.00 -99.00 -99.00 -99.00 -99.00 -99.00 -99.00 -99.00 -99.00 -99.00 -99.00 -99.00 -99.00 -99.00 -99.00 -99.00 -99.00 -99.00 -99.00 -99.00 -99.00 -99.00 -99.00 -99.00 -99.00 -99.00 -99.00 -99.00 -99.00 -99.00 -99.00 -99.00 -99.00 -99.00 -99.00 -99.00 -99.00 -99.00 -99.00 -99.00 -99.00 -99.00 -99.00 -99.00 -99.00 -99.00 -99.00 -99.00 -99.00 -99.00 -99.00 -99.00 -99.00 -99.00 -99.00 -99.00 -99.00 -99.00 -99.00 -99.00 -99.00 -99.00 -99.00 -99.00 -99.00 -99.00 -99.00 -99.00 -99.00 -99.00 -99.00 -99.00 -99.00 -99.00 -99.00 -99.00 -99.00 -99.00 -99.00 -99.00 -99.00 -99.00 -99.00 -99.00 -99.00 -99.00 -99.00 -99.00 -99.00 -99.00 -99.00 -99.00 -99.00 -99.00 -99.00 -99.00 -99.00 -99.00 -99.00 -99.00 -99.00 -99.00 -99.00 -99.00 -99.00 -99.00 -99.00 -99.00 -99.00 -99.00 -92.30 -88.00 -83.90 -80.50 -78.60 -77.60 -77.00 -76.70 -76.60 -76.50 -76.30 -76.20 -76.00 -75.80 -75.60 -75.30 -75.10 -74.80 -74.50 -74.30 -74.10 -73.90 -73.90 -73.90 -74.00 -74.10 -74.30 -74.50 -74.80 -75.20 -75.80 -76.50 -77.30 -78.40 -79.60 -80.80 -82.40 -83.90 -85.20 -86.40 -87.70 -88.90 -90.10 -91.30 -92.60 -93.90 -95.30 -99.00 -99.00 -99.00 -99.00 -99.00 -99.00 -99.00 -99.00 -99.00 -99.00 -99.00 -99.00 -99.00 -99.00 -99.00 -99.00 -99.00 -99.00 -99.00 -99.00 -99.00 -99.00 -99.00 -99.00 -99.00 -99.00 -99.00 -99.00 -99.00 -99.00 -99.00 -99.00 -99.00 -99.00 -99.00 -99.00 -99.00 -99.00 -99.00 -99.00 -99.00 -99.00 -99.00 -99.00 -99.00 -99.00 -96.20 -94.20 -92.10 -89.70 -87.30 -84.80 -82.40 -80.00 -77.70 -75.60 -73.60 -71.60 -69.70 -67.80 -65.90 -63.90 -61.70 -59.50 -57.70 -56.30 -55.30 -54.50 -53.40 -51.70 -49.40 -46.40 -42.10 -36.80 -31.10 -26.10 -22.30 -19.70 -18.00 -17.00 -16.30 -16.00 -15.80 -15.80 -15.80 -15.80 -15.90 -15.90 -16.00 -16.10 -16.20 -16.30 -16.30 -16.40 -16.40 -16.40 -16.40 -16.40 -16.30 -16.20 -16.10 -16.00 -15.80 -15.70 -15.60 -15.50 -15.40 -15.30 -15.20 -15.10 -15.10 -15.10 -15.20 -15.30 -15.40 -15.50 -15.70 -15.80 -16.00 -16.20 -16.30 -16.40 -16.40 -16.40 -16.40 -16.20 -16.10 -15.80 -15.60 -15.30 -15.00 -14.60 -14.40 -14.10 -13.90 -13.70 -13.60 -13.50 -13.30 -13.10 -12.80 -12.50 -12.10 -11.60 -11.30 -10.90 -10.60 -10.40 -10.00 -9.80 -8.90 -7.60 -6.30 -5.30 -4.80 -4.50 -4.20 -3.90 -3.20 -1.70 0.00 1.60 2.50 2.80 2.80 2.70 2.60 2.70 3.30 4.40 4.30 3.80 6.70 18.40 18.10 19.20 16.60 13.60 11.10 9.00 5.30 2.30 0.00 -2.00 -4.10 -6.30 -8.90 -10.60 -11.90 -13.00 -14.20 -15.40 -16.60 -17.70 -18.50 -19.10 -19.70 -20.70 -22.50 -26.10 -32.60 -39.80 -46.10 -50.80 -54.30 -56.80 -58.80 -60.40 -61.70 -63.00 -64.20 -65.50 -66.70 -68.00 -69.20 -70.40 -71.70 -73.00 -74.30 -75.60 -76.90 -78.20
-99.00 -99.00 -99.00 -99.00 -99.00 -99.00 -99.00 -99.00 -99.00 -99.00 -99.00 -99.00 -99.00 -99.00 -99.00 -99.00 -99.00 -99.00 -99.00 -99.00 -99.00 -99.00 -99.00 -99.00 -99.00 -99.00 -99.00 -99.00 -99.00 -99.00 -99.00 -99.00 -99.00 -99.00 -99.00 -99.00 -99.00 -99.00 -99.00 -99.00 -99.00 -99.00 -99.00 -99.00 -99.00 -99.00 -99.00 -99.00 -99.00 -99.00 -99.00 -99.00 -99.00 -99.00 -99.00 -99.00 -99.00 -99.00 -99.00 -99.00 -99.00 -99.00 -99.00 -99.00 -99.00 -99.00 -99.00 -99.00 -99.00 -99.00 -99.00 -99.00 -99.00 -99.00 -99.00 -99.00 -99.00 -99.00 -99.00 -99.00 -99.00 -99.00 -99.00 -99.00 -99.00 -99.00 -99.00 -99.00 -99.00 -99.00 -99.00 -99.00 -99.00 -99.00 -99.00 -99.00 -99.00 -99.00 -99.00 -99.00 -99.00 -99.00 -99.00 -99.00 -99.00 -99.00 -99.00 -99.00 -99.00 -99.00 -99.00 -99.00 -99.00 -99.00 -99.00 -99.00 -99.00 -99.00 -99.00 -99.00 -99.00 -99.00 -99.00 -99.00 -99.00 -99.00 -99.00 -99.00 -99.00 -99.00 -99.00 -99.00 -99.00 -99.00 -99.00 -99.00 -99.00 -99.00 -99.00 -99.00 -99.00 -99.00 -99.00 -99.00 -99.00 -99.00 -99.00 -99.00 -99.00 -99.00 -99.00 -99.00 -99.00 -99.00 -99.00 -99.00 -99.00 -99.00 -99.00 -99.00 -99.00 -99.00 -99.00 -99.00 -99.00 -99.00 -93.10 -88.50 -84.10 -80.50 -78.50 -77.40 -76.90 -76.80 -76.70 -76.60 -76.50 -76.40 -76.20 -76.00 -75.80 -75.60 -75.30 -75.10 -74.80 -74.60 -74.40 -74.30 -74.20 -74.30 -74.40 -74.50 -74.80 -75.10 -75.60 -76.20 -76.90 -77.90 -78.90 -80.30 -81.90 -83.50 -85.20 -86.90 -88.40 -89.80 -91.30 -92.70 -94.00 -95.20 -99.00 -99.00 -99.00 -99.00 -99.00 -99.00 -99.00 -99.00 -99.00 -99.00 -99.00 -99.00 -99.00 -99.00 -99.00 -99.00 -99.00 -99.00 -99.00 -99.00 -99.00 -99.00 -99.00 -99.00 -99.00 -99.00 -99.00 -99.00 -99.00 -99.00 -99.00 -99.00 -99.00 -99.00 -99.00 -99.00 -99.00 -99.00 -99.00 -99.00 -99.00 -99.00 -99.00 -99.00 -99.00 -99.00 -99.00 -99.00 -97.60 -96.10 -94.20 -92.00 -89.70 -87.20 -84.70 -82.30 -80.00 -77.90 -75.80 -73.90 -72.00 -70.10 -68.30 -66.60 -64.60 -62.50 -60.20 -58.30 -56.80 -55.70 -54.80 -53.70 -52.20 -50.10 -47.70 -45.30 -41.00 -35.70 -30.20 -25.50 -22.00 -19.50 -17.90 -16.90 -16.30 -15.90 -15.70 -15.60 -15.60 -15.60 -15.70 -15.70 -15.80 -15.90 -15.90 -16.00 -16.00 -16.10 -16.10 -16.10 -16.00 -16.00 -15.90 -15.90 -15.80 -15.70 -15.60 -15.50 -15.50 -15.40 -15.30 -15.30 -15.30 -15.30 -15.30 -15.40 -15.50 -15.60 -15.80 -15.90 -16.10 -16.20 -16.40 -16.50 -16.60 -16.60 -16.60 -16.50 -16.40 -16.20 -16.00 -15.70 -15.40 -15.10 -14.80 -14.60 -14.40 -14.20 -14.10 -14.00 -13.90 -13.80 -13.60 -13.40 -13.10 -12.70 -12.30 -12.00 -11.60 -11.30 -11.00 -10.70 -10.00 -9.40 -8.40 -7.50 -6.80 -6.50 -6.30 -6.10 -5.80 -5.10 -3.70 -1.50 0.40 1.80 2.30 2.40 2.20 2.00 2.10 2.40 3.40 5.00 5.30 10.20 19.40 22.60 20.70 20.00 13.10 10.80 9.70 5.80 2.70 0.10 -2.10 -4.70 -7.20 -9.60 -10.90 -11.80 -12.60 -13.60 -14.70 -16.00 -17.20 -18.40 -19.60 -20.90 -22.40 -24.60 -28.50 -35.20 -42.00 -47.50 -51.70 -55.00 -57.50 -59.40 -61.10 -62.50 -63.80 -65.10 -66.30 -67.60 -68.90 -70.10 -71.30 -72.60 -73.90 -75.20 -76.40 -77.70 -79.00
-99.00 -99.00 -99.00 -99.00 -99.00 -99.00 -99.00 -99.00 -99.00 -99.00 -99.00 -99.00 -99.00 -99.00 -99.00 -99.00 -99.00 -99.00 -99.00 -99.00 -99.00 -99.00 -99.00 -99.00 -99.00 -99.00 -99.00 -99.00 -99.00 -99.00 -99.00 -99.00 -99.00 -99.00 -99.00 -99.00 -99.00 -99.00 -99.00 -99.00 -99.00 -99.00 -99.00 -99.00 -99.00 -99.00 -99.00 -99.00 -99.00 -99.00 -99.00 -99.00 -99.00 -99.00 -99.00 -99.00 -99.00 -99.00 -99.00 -99.00 -99.00 -99.00 -99.00 -99.00 -99.00 -99.00 -99.00 -99.00 -99.00 -99.00 -99.00 -99.00 -99.00 -99.00 -99.00 -99.00 -99.00 -99.00 -99.00 -99.00 -99.00 -99.00 -99.00 -99.00 -99.00 -99.00 -99.00 -99.00 -99.00 -99.00 -99.00 -99.00 -99.00 -99.00 -99.00 -99.00 -99.00 -99.00 -99.00 -99.00 -99.00 -99.00 -99.00 -99.00 -99.00 -99.00 -99.00 -99.00 -99.00 -99.00 -99.00 -99.00 -99.00 -99.00 -99.00 -99.00 -99.00 -99.00 -99.00 -99.00 -99.00 -99.00 -99.00 -99.00 -99.00 -99.00 -99.00 -99.00 -99.00 -99.00 -99.00 -99.00 -99.00 -99.00 -99.00 -99.00 -99.00 -99.00 -99.00 -99.00 -99.00 -99.00 -99.00 -99.00 -99.00 -99.00 -99.00 -99.00 -99.00 -99.00 -99.00 -99.00 -99.00 -99.00 -99.00 -99.00 -99.00 -99.00 -99.00 -99.00 -99.00 -99.00 -99.00 -99.00 -99.00 -99.00 -93.90 -89.10 -84.40 -80.60 -78.50 -77.50 -77.10 -77.00 -76.90 -76.90 -76.80 -76.70 -76.50 -76.20 -76.00 -75.80 -75.50 -75.20 -75.00 -74.80 -74.60 -74.60 -74.60 -74.60 -74.80 -75.00 -75.40 -75.90 -76.60 -77.40 -78.40 -79.70 -81.10 -82.90 -84.70 -86.60 -88.40 -90.10 -91.70 -93.30 -94.70 -99.00 -99.00 -99.00 -99.00 -99.00 -99.00 -99.00 -99.00 -99.00 -99.00 -99.00 -99.00 -99.00 -99.00 -99.00 -99.00 -99.00 -99.00 -99.00 -99.00 -99.00 -99.00 -99.00 -99.00 -99.00 -99.00 -99.00 -99.00 -99.00 -99.00 -99.00 -99.00 -99.00 -99.00 -99.00 -99.00 -99.00 -99.00 -99.00 -99.00 -99.00 -99.00 -99.00 -99.00 -99.00 -99.00 -99.00 -99.00 -99.00 -99.00 -99.00 -97.50 -95.90 -94.10 -91.90 -89.60 -87.20 -84.70 -82.30 -80.00 -78.00 -76.00 -74.20 -72.30 -70.50 -68.80 -67.10 -65.30 -63.20 -61.00 -58.90 -57.30 -56.00 -55.00 -53.90 -52.40 -50.30 -48.00 -47.00 -44.60 -40.00 -34.70 -29.50 -25.00 -21.70 -19.30 -17.80 -16.80 -16.20 -15.80 -15.60 -15.50 -15.50 -15.50 -15.50 -15.60 -15.60 -15.70 -15.70 -15.70 -15.80 -15.80 -15.80 -15.80 -15.70 -15.70 -15.70 -15.60 -15.60 -15.60 -15.50 -15.50 -15.50 -15.40 -15.40 -15.40 -15.40 -15.50 -15.60 -15.70 -15.90 -16.00 -16.20 -16.30 -16.50 -16.60 -16.70 -16.80 -16.80 -16.70 -16.70 -16.50 -16.30 -16.10 -15.80 -15.60 -15.30 -15.10 -14.80 -14.60 -14.50 -14.40 -14.40 -14.30 -14.30 -14.20 -14.00 -13.70 -13.40 -13.10 -12.70 -12.30 -12.00 -11.60 -11.10 -10.50 -9.90 -9.10 -8.50 -8.10 -7.80 -7.60 -7.40 -6.90 -6.10 -4.60 -2.40 -0.20 1.20 2.00 2.20 2.00 1.90 1.90 2.10 2.80 4.30 6.80 15.30 20.10 23.30 23.30 20.60 18.00 11.10 9.00 6.70 3.30 0.40 -2.00 -5.10 -8.00 -10.00 -11.00 -11.50 -11.90 -12.50 -13.50 -14.90 -16.40 -17.90 -19.80 -21.90 -24.20 -26.80 -31.40 -38.10 -44.00 -48.90 -52.60 -55.60 -58.00 -59.90 -61.60 -63.00 -64.40 -65.70 -67.00 -68.30 -69.60 -70.90 -72.10 -73.40 -74.60 -75.90 -77.20 -78.50 -79.70
-99.00 -99.00 -99.00 -99.00 -99.00 -99.00 -99.00 -99.00 -99.00 -99.00 -99.00 -99.00 -99.00 -99.00 -99.00 -99.00 -99.00 -99.00 -99.00 -99.00 -99.00 -99.00 -99.00 -99.00 -99.00 -99.00 -99.00 -99.00 -99.00 -99.00 -99.00 -99.00 -99.00 -99.00 -99.00 -99.00 -99.00 -99.00 -99.00 -99.00 -99.00 -99.00 -99.00 -99.00 -99.00 -99.00 -99.00 -99.00 -99.00 -99.00 -99.00 -99.00 -99.00 -99.00 -99.00 -99.00 -99.00 -99.00 -99.00 -99.00 -99.00 -99.00 -99.00 -99.00 -99.00 -99.00 -99.00 -99.00 -99.00 -99.00 -99.00 -99.00 -99.00 -99.00 -99.00 -99.00 -99.00 -99.00 -99.00 -99.00 -99.00 -99.00 -99.00 -99.00 -99.00 -99.00 -99.00 -99.00 -99.00 -99.00 -99.00 -99.00 -99.00 -99.00 -99.00 -99.00 -99.00 -99.00 -99.00 -99.00 -99.00 -99.00 -99.00 -99.00 -99.00 -99.00 -99.00 -99.00 -99.00 -99.00 -99.00 -99.00 -99.00 -99.00 -99.00 -99.00 -99.00 -99.00 -99.00 -99.00 -99.00 -99.00 -99.00 -99.00 -99.00 -99.00 -99.00 -99.00 -99.00 -99.00 -99.00 -99.00 -99.00 -99.00 -99.00 -99.00 -99.00 -99.00 -99.00 -99.00 -99.00 -99.00 -99.00 -99.00 -99.00 -99.00 -99.00 -99.00 -99.00 -99.00 -99.00 -99.00 -99.00 -99.00 -99.00 -99.00 -99.00 -99.00 -99.00 -99.00 -99.00 -99.00 -99.00 -99.00 -99.00 -99.00 -94.40 -89.50 -84.80 -80.90 -78.80 -77.80 -77.50 -77.40 -77.30 -77.20 -77.10 -76.90 -76.60 -76.40 -76.10 -75.90 -75.60 -75.40 -75.10 -75.00 -74.90 -74.90 -74.90 -75.10 -75.30 -75.70 -76.30 -77.00 -77.90 -79.00 -80.40 -82.20 -84.00 -86.10 -88.10 -89.90 -91.70 -93.40 -95.00 -99.00 -99.00 -99.00 -99.00 -99.00 -99.00 -99.00 -99.00 -99.00 -99.00 -99.00 -99.00 -99.00 -99.00 -99.00 -99.00 -99.00 -99.00 -99.00 -99.00 -99.00 -99.00 -99.00 -99.00 -99.00 -99.00 -99.00 -99.00 -99.00 -99.00 -99.00 -99.00 -99.00 -99.00 -99.00 -99.00 -99.00 -99.00 -99.00 -99.00 -99.00 -99.00 -99.00 -99.00 -99.00 -99.00 -99.00 -99.00 -99.00 -99.00 -99.00 -99.00 -99.00 -97.30 -95.70 -93.90 -91.80 -89.50 -87.10 -84.60 -82.20 -80.00 -78.00 -76.20 -74.40 -72.70 -70.90 -69.20 -67.60 -65.90 -64.00 -61.80 -59.60 -57.80 -56.40 -55.40 -54.30 -52.90 -51.30 -49.80 -49.00 -47.50 -44.00 -39.20 -34.00 -28.90 -24.60 -21.50 -19.30 -17.80 -16.80 -16.20 -15.80 -15.50 -15.40 -15.40 -15.40 -15.40 -15.40 -15.50 -15.50 -15.50 -15.50 -15.50 -15.50 -15.50 -15.50 -15.50 -15.50 -15.60 -15.60 -15.60 -15.60 -15.60 -15.60 -15.60 -15.60 -15.60 -15.70 -15.70 -15.80 -16.00 -16.10 -16.30 -16.50 -16.60 -16.80 -16.90 -16.90 -17.00 -17.00 -16.90 -16.80 -16.70 -16.50 -16.30 -16.00 -15.80 -15.50 -15.30 -15.10 -15.00 -14.90 -14.80 -14.80 -14.80 -14.80 -14.70 -14.60 -14.40 -14.10 -13.80 -13.40 -13.00 -12.60 -12.10 -11.40 -10.70 -10.00 -9.50 -9.30 -9.10 -8.80 -8.50 -8.20 -7.60 -6.70 -5.20 -3.30 -1.00 0.60 1.80 2.10 2.00 1.90 1.90 2.00 2.40 3.90 6.40 10.10 20.10 18.50 20.40 20.90 19.80 12.90 7.60 3.90 3.80 0.30 -2.70 -5.90 -8.90 -10.30 -10.80 -10.90 -10.90 -11.20 -12.00 -13.50 -15.30 -17.10 -19.20 -21.70 -24.70 -28.40 -34.40 -40.90 -46.10 -50.20 -53.50 -56.20 -58.40 -60.20 -61.90 -63.40 -64.80 -66.20 -67.60 -68.90 -70.20 -71.50 -72.80 -74.00 -75.30 -76.60 -77.80 -79.10 -80.20
-99.00 -99.00 -99.00 -99.00 -99.00 -99.00 -99.00 -99.00 -99.00 -99.00 -99.00 -99.00 -99.00 -99.00 -99.00 -99.00 -99.00 -99.00 -99.00 -99.00 -99.00 -99.00 -99.00 -99.00 -99.00 -99.00 -99.00 -99.00 -99.00 -99.00 -99.00 -99.00 -99.00 -99.00 -99.00 -99.00 -99.00 -99.00 -99.00 -99.00 -99.00 -99.00 -99.00 -99.00 -99.00 -99.00 -99.00 -99.00 -99.00 -99.00 -99.00 -99.00 -99.00 -99.00 -99.00 -99.00 -99.00 -99.00 -99.00 -99.00 -99.00 -99.00 -99.00 -99.00 -99.00 -99.00 -99.00 -99.00 -99.00 -99.00 -99.00 -99.00 -99.00 -99.00 -99.00 -99.00 -99.00 -99.00 -99.00 -99.00 -99.00 -99.00 -99.00 -99.00 -99.00 -99.00 -99.00 -99.00 -99.00 -99.00 -99.00 -99.00 -99.00 -99.00 -99.00 -99.00 -99.00 -99.00 -99.00 -99.00 -99.00 -99.00 -99.00 -99.00 -99.00 -99.00 -99.00 -99.00 -99.00 -99.00 -99.00 -99.00 -99.00 -99.00 -99.00 -99.00 -99.00 -99.00 -99.00 -99.00 -99.00 -99.00 -99.00 -99.00 -99.00 -99.00 -99.00 -99.00 -99.00 -99.00 -99.00 -99.00 -99.00 -99.00 -99.00 -99.00 -99.00 -99.00 -99.00 -99.00 -99.00 -99.00 -99.00 -99.00 -99.00 -99.00 -99.00 -99.00 -99.00 -99.00 -99.00 -99.00 -99.00 -99.00 -99.00 -99.00 -99.00 -99.00 -99.00 -99.00 -99.00 -99.00 -99.00 -99.00 -99.00 -99.00 -94.50 -89.90 -85.30 -81.40 -79.30 -78.50 -78.10 -77.90 -77.80 -77.60 -77.30 -77.10 -76.80 -76.50 -76.20 -76.00 -75.70 -75.50 -75.30 -75.20 -75.20 -75.30 -75.40 -75.70 -76.10 -76.60 -77.40 -78.40 -79.70 -81.20 -83.10 -85.30 -87.40 -89.60 -91.60 -93.40 -95.00 -99.00 -99.00 -99.00 -99.00 -99.00 -99.00 -99.00 -99.00 -99.00 -99.00 -99.00 -99.00 -99.00 -99.00 -99.00 -99.00 -99.00 -99.00 -99.00 -99.00 -99.00 -99.00 -99.00 -99.00 -99.00 -99.00 -99.00 -99.00 -99.00 -99.00 -99.00 -99.00 -99.00 -99.00 -99.00 -99.00 -99.00 -99.00 -99.00 -99.00 -99.00 -99.00 -99.00 -99.00 -99.00 -99.00 -99.00 -99.00 -99.00 -99.00 -99.00 -99.00 -99.00 -99.00 -99.00 -96.90 -95.30 -93.60 -91.50 -89.30 -86.90 -84.50 -82.20 -80.00 -78.10 -76.40 -74.70 -73.00 -71.20 -69.50 -67.90 -66.50 -64.80 -62.70 -60.50 -58.50 -57.00 -55.80 -54.80 -53.70 -52.50 -51.40 -50.80 -49.70 -47.30 -43.40 -38.50 -33.40 -28.70 -24.70 -21.50 -19.30 -17.80 -16.90 -16.20 -15.80 -15.60 -15.40 -15.40 -15.40 -15.40 -15.30 -15.30 -15.30 -15.30 -15.40 -15.40 -15.40 -15.40 -15.40 -15.40 -15.50 -15.50 -15.60 -15.60 -15.70 -15.70 -15.70 -15.80 -15.80 -15.90 -16.00 -16.10 -16.30 -16.40 -16.60 -16.70 -16.90 -17.00 -17.10 -17.20 -17.20 -17.20 -17.10 -17.00 -16.80 -16.60 -16.40 -16.20 -16.00 -15.80 -15.60 -15.40 -15.30 -15.20 -15.20 -15.20 -15.30 -15.30 -15.20 -15.20 -15.00 -14.80 -14.50 -14.10 -13.70 -13.20 -12.60 -11.90 -11.20 -10.50 -10.00 -9.90 -9.90 -9.50 -9.20 -8.80 -8.20 -7.40 -6.20 -4.60 -2.70 -0.80 0.70 1.80 2.10 2.00 1.90 1.90 2.10 3.50 5.80 9.20 18.90 17.30 19.40 20.10 17.50 15.40 8.80 3.60 3.90 -0.10 -3.70 -6.80 -9.40 -10.30 -10.50 -10.30 -10.00 -10.00 -10.60 -12.40 -14.30 -16.20 -18.60 -21.50 -25.40 -30.50 -37.40 -43.20 -47.80 -51.50 -54.30 -56.70 -58.70 -60.50 -62.10 -63.60 -65.10 -66.50 -67.90 -69.30 -70.70 -72.00 -73.30 -74.60 -75.80 -77.10 -78.40 -79.70 -80.90
-99.00 -99.00 -99.00 -99.00 -99.00 -99.00 -99.00 -99.00 -99.00 -99.00 -99.00 -99.00 -99.00 -99.00 -99.00 -99.00 -99.00 -99.00 -99.00 -99.00 -99.00 -99.00 -99.00 -99.00 -99.00 -99.00 -99.00 -99.00 -99.00 -99.00 -99.00 -99.00 -99.00 -99.00 -99.00 -99.00 -99.00 -99.00 -99.00 -99.00 -99.00 -99.00 -99.00 -99.00 -99.00 -99.00 -99.00 -99.00 -99.00 -99.00 -99.00 -99.00 -99.00 -99.00 -99.00 -99.00 -99.00 -99.00 -99.00 -99.00 -99.00 -99.00 -99.00 -99.00 -99.00 -99.00 -99.00 -99.00 -99.00 -99.00 -99.00 -99.00 -99.00 -99.00 -99.00 -99.00 -99.00 -99.00 -99.00 -99.00 -99.00 -99.00 -99.00 -99.00 -99.00 -99.00 -99.00 -99.00 -99.00 -99.00 -99.00 -99.00 -99.00 -99.00 -99.00 -99.00 -99.00 -99.00 -99.00 -99.00 -99.00 -99.00 -99.00 -99.00 -99.00 -99.00 -99.00 -99.00 -99.00 -99.00 -99.00 -99.00 -99.00 -99.00 -99.00 -99.00 -99.00 -99.00 -99.00 -99.00 -99.00 -99.00 -99.00 -99.00 -99.00 -99.00 -99.00 -99.00 -99.00 -99.00 -99.00 -99.00 -99.00 -99.00 -99.00 -99.00 -99.00 -99.00 -99.00 -99.00 -99.00 -99.00 -99.00 -99.00 -99.00 -99.00 -99.00 -99.00 -99.00 -99.00 -99.00 -99.00 -99.00 -99.00 -99.00 -99.00 -99.00 -99.00 -99.00 -99.00 -99.00 -99.00 -99.00 -99.00 -99.00 -99.00 -94.60 -90.40 -86.10 -82.50 -80.10 -79.40 -78.90 -78.60 -78.30 -77.90 -77.60 -77.20 -76.90 -76.60 -76.40 -76.10 -75.80 -75.70 -75.60 -75.60 -75.70 -75.80 -76.10 -76.60 -77.20 -77.90 -78.90 -80.40 -82.20 -84.10 -86.40 -88.70 -91.00 -93.30 -95.20 -99.00 -99.00 -99.00 -99.00 -99.00 -99.00 -99.00 -99.00 -99.00 -99.00 -99.00 -99.00 -99.00 -99.00 -99.00 -99.00 -99.00 -99.00 -99.00 -99.00 -99.00 -99.00 -99.00 -99.00 -99.00 -99.00 -99.00 -99.00 -99.00 -99.00 -99.00 -99.00 -99.00 -99.00 -99.00 -99.00 -99.00 -99.00 -99.00 -99.00 -99.00 -99.00 -99.00 -99.00 -99.00 -99.00 -99.00 -99.00 -99.00 -99.00 -99.00 -99.00 -99.00 -99.00 -99.00 -99.00 -99.00 -96.50 -94.90 -93.20 -91.20 -89.00 -86.70 -84.40 -82.10 -80.00 -78.20 -76.50 -74.90 -73.20 -71.50 -69.70 -68.20 -66.90 -65.40 -63.50 -61.40 -59.40 -57.70 -56.50 -55.60 -54.60 -53.60 -52.80 -52.30 -51.50 -49.80 -46.90 -42.60 -37.80 -33.00 -28.60 -24.70 -21.60 -19.50 -18.00 -17.10 -16.40 -16.00 -15.80 -15.60 -15.50 -15.40 -15.40 -15.30 -15.30 -15.20 -15.20 -15.20 -15.30 -15.30 -15.30 -15.40 -15.50 -15.50 -15.60 -15.70 -15.80 -15.90 -15.90 -16.00 -16.10 -16.20 -16.30 -16.40 -16.60 -16.70 -16.90 -17.00 -17.20 -17.30 -17.40 -17.40 -17.40 -17.40 -17.30 -17.10 -17.00 -16.80 -16.60 -16.40 -16.20 -16.00 -15.90 -15.80 -15.70 -15.70 -15.70 -15.70 -15.80 -15.80 -15.80 -15.80 -15.70 -15.50 -15.20 -14.80 -14.40 -13.80 -13.20 -12.50 -11.80 -11.20 -10.70 -10.50 -10.30 -10.00 -9.60 -9.20 -8.80 -8.20 -7.30 -6.10 -4.70 -3.10 -1.00 0.80 1.90 2.00 1.90 1.90 2.10 3.10 4.80 7.30 11.10 14.70 16.80 17.50 16.00 11.60 5.60 2.80 2.00 -1.10 -4.90 -8.00 -9.80 -10.00 -10.00 -9.90 -9.60 -9.50 -10.10 -11.80 -13.50 -15.50 -18.20 -21.70 -26.40 -32.80 -40.00 -45.40 -49.40 -52.60 -55.00 -57.10 -58.90 -60.50 -62.10 -63.60 -65.10 -66.60 -68.10 -69.50 -70.90 -72.30 -73.70 -75.00 -76.30 -77.50 -78.80 -80.00 -81.40
-99.00 -99.00 -99.00 -99.00 -99.00 -99.00 -99.00 -99.00 -99.00 -99.00 -99.00 -99.00 -99.00 -99.00 -99.00 -99.00 -99.00 -99.00 -99.00 -99.00 -99.00 -99.00 -99.00 -99.00 -99.00 -99.00 -99.00 -99.00 -99.00 -99.00 -99.00 -99.00 -99.00 -99.00 -99.00 -99.00 -99.00 -99.00 -99.00 -99.00 -99.00 -99.00 -99.00 -99.00 -99.00 -99.00 -99.00 -99.00 -99.00 -99.00 -99.00 -99.00 -99.00 -99.00 -99.00 -99.00 -99.00 -99.00 -99.00 -99.00 -99.00 -99.00 -99.00 -99.00 -99.00 -99.00 -99.00 -99.00 -99.00 -99.00 -99.00 -99.00 -99.00 -99.00 -99.00 -99.00 -99.00 -99.00 -99.00 -99.00 -99.00 -99.00 -99.00 -99.00 -99.00 -99.00 -99.00 -99.00 -99.00 -99.00 -99.00 -99.00 -99.00 -99.00 -99.00 -99.00 -99.00 -99.00 -99.00 -99.00 -99.00 -99.00 -99.00 -99.00 -99.00 -99.00 -99.00 -99.00 -99.00 -99.00 -99.00 -99.00 -99.00 -99.00 -99.00 -99.00 -99.00 -99.00 -99.00 -99.00 -99.00 -99.00 -99.00 -99.00 -99.00 -99.00 -99.00 -99.00 -99.00 -99.00 -99.00 -99.00 -99.00 -99.00 -99.00 -99.00 -99.00 -99.00 -99.00 -99.00 -99.00 -99.00 -99.00 -99.00 -99.00 -99.00 -99.00 -99.00 -99.00 -99.00 -99.00 -99.00 -99.00 -99.00 -99.00 -99.00 -99.00 -99.00 -99.00 -99.00 -99.00 -99.00 -99.00 -99.00 -99.00 -99.00 -94.90 -91.20 -87.30 -83.70 -81.20 -80.40 -79.80 -79.20 -78.60 -78.20 -77.80 -77.40 -77.10 -76.80 -76.50 -76.30 -76.10 -76.00 -76.10 -76.20 -76.40 -76.80 -77.20 -77.90 -78.70 -79.80 -81.10 -83.00 -85.20 -87.50 -89.90 -92.30 -94.60 -99.00 -99.00 -99.00 -99.00 -99.00 -99.00 -99.00 -99.00 -99.00 -99.00 -99.00 -99.00 -99.00 -99.00 -99.00 -99.00 -99.00 -99.00 -99.00 -99.00 -99.00 -99.00 -99.00 -99.00 -99.00 -99.00 -99.00 -99.00 -99.00 -99.00 -99.00 -99.00 -99.00 -99.00 -99.00 -99.00 -99.00 -99.00 -99.00 -99.00 -99.00 -99.00 -99.00 -99.00 -99.00 -99.00 -99.00 -99.00 -99.00 -99.00 -99.00 -99.00 -99.00 -99.00 -99.00 -99.00 -99.00 -99.00 -97.40 -96.00 -94.40 -92.70 -90.80 -88.70 -86.50 -84.20 -82.00 -80.00 -78.20 -76.60 -75.00 -73.40 -71.70 -69.90 -68.40 -67.10 -65.90 -64.30 -62.30 -60.30 -58.60 -57.40 -56.40 -55.60 -54.80 -54.00 -53.50 -52.90 -51.70 -49.60 -46.20 -41.90 -37.30 -32.70 -28.40 -24.80 -21.80 -19.90 -18.40 -17.40 -16.80 -16.40 -16.10 -15.90 -15.70 -15.50 -15.40 -15.30 -15.20 -15.20 -15.20 -15.20 -15.20 -15.30 -15.40 -15.50 -15.60 -15.70 -15.80 -16.00 -16.10 -16.20 -16.30 -16.40 -16.50 -16.60 -16.80 -16.90 -17.10 -17.20 -17.40 -17.50 -17.60 -17.60 -17.70 -17.60 -17.60 -17.50 -17.30 -17.10 -16.90 -16.70 -16.50 -16.40 -16.20 -16.10 -16.10 -16.10 -16.10 -16.20 -16.30 -16.30 -16.40 -16.40 -16.40 -16.30 -16.10 -15.90 -15.50 -15.10 -14.50 -13.90 -13.20 -12.50 -11.90 -11.50 -11.20 -10.80 -10.40 -10.00 -9.60 -9.30 -8.90 -8.30 -7.50 -6.30 -4.90 -3.00 -0.40 1.40 1.80 1.60 1.60 2.00 2.60 3.60 5.20 7.70 10.50 14.40 12.50 12.00 11.00 3.80 1.30 1.30 -2.40 -5.80 -8.80 -9.80 -9.50 -9.30 -9.20 -9.20 -9.40 -9.90 -11.30 -12.90 -15.10 -18.20 -22.40 -27.90 -35.10 -42.20 -47.20 -50.70 -53.40 -55.50 -57.30 -59.00 -60.50 -62.00 -63.60 -65.10 -66.60 -68.10 -69.60 -71.10 -72.50 -74.00 -75.30 -76.70 -77.90 -79.10 -80.30 -81.90
-99.00 -99.00 -99.00 -99.00 -99.00 -99.00 -99.00 -99.00 -99.00 -99.00 -99.00 -99.00 -99.00 -99.00 -99.00 -99.00 -99.00 -99.00 -99.00 -99.00 -99.00 -99.00 -99.00 -99.00 -99.00 -99.00 -99.00 -99.00 -99.00 -99.00 -99.00 -99.00 -99.00 -99.00 -99.00 -99.00 -99.00 -99.00 -99.00 -99.00 -99.00 -99.00 -99.00 -99.00 -99.00 -99.00 -99.00 -99.00 -99.00 -99.00 -99.00 -99.00 -99.00 -99.00 -99.00 -99.00 -99.00 -99.00 -99.00 -99.00 -99.00 -99.00 -99.00 -99.00 -99.00 -99.00 -99.00 -99.00 -99.00 -99.00 -99.00 -99.00 -99.00 -99.00 -99.00 -99.00 -99.00 -99.00 -99.00 -99.00 -99.00 -99.00 -99.00 -99.00 -99.00 -99.00 -99.00 -99.00 -99.00 -99.00 -99.00 -99.00 -99.00 -99.00 -99.00 -99.00 -99.00 -99.00 -99.00 -99.00 -99.00 -99.00 -99.00 -99.00 -99.00 -99.00 -99.00 -99.00 -99.00 -99.00 -99.00 -99.00 -99.00 -99.00 -99.00 -99.00 -99.00 -99.00 -99.00 -99.00 -99.00 -99.00 -99.00 -99.00 -99.00 -99.00 -99.00 -99.00 -99.00 -99.00 -99.00 -99.00 -99.00 -99.00 -99.00 -99.00 -99.00 -99.00 -99.00 -99.00 -99.00 -99.00 -99.00 -99.00 -99.00 -99.00 -99.00 -99.00 -99.00 -99.00 -99.00 -99.00 -99.00 -99.00 -99.00 -99.00 -99.00 -99.00 -99.00 -99.00 -99.00 -99.00 -99.00 -99.00 -99.00 -99.00 -99.00 -92.40 -88.80 -85.40 -82.70 -80.90 -80.00 -79.30 -78.70 -78.30 -77.90 -77.60 -77.40 -77.20 -77.00 -76.90 -76.80 -76.80 -76.90 -77.20 -77.70 -78.10 -78.80 -79.70 -80.80 -82.30 -84.00 -86.20 -88.50 -91.00 -93.40 -95.70 -99.00 -99.00 -99.00 -99.00 -99.00 -99.00 -99.00 -99.00 -99.00 -99.00 -99.00 -99.00 -99.00 -99.00 -99.00 -99.00 -99.00 -99.00 -99.00 -99.00 -99.00 -99.00 -99.00 -99.00 -99.00 -99.00 -99.00 -99.00 -99.00 -99.00 -99.00 -99.00 -99.00 -99.00 -99.00 -99.00 -99.00 -99.00 -99.00 -99.00 -99.00 -99.00 -99.00 -99.00 -99.00 -99.00 -99.00 -99.00 -99.00 -99.00 -99.00 -99.00 -99.00 -99.00 -99.00 -99.00 -99.00 -99.00 -99.00 -97.00 -95.50 -93.90 -92.20 -90.30 -88.30 -86.20 -84.00 -81.90 -80.00 -78.20 -76.70 -75.20 -73.60 -72.00 -70.20 -68.50 -67.30 -66.20 -64.90 -63.20 -61.30 -59.60 -58.40 -57.40 -56.60 -55.80 -55.10 -54.60 -54.10 -53.30 -51.70 -49.10 -45.50 -41.20 -36.80 -32.40 -28.40 -25.00 -22.40 -20.30 -18.90 -18.00 -17.40 -16.90 -16.50 -16.20 -15.90 -15.60 -15.40 -15.30 -15.20 -15.20 -15.20 -15.20 -15.30 -15.40 -15.60 -15.70 -15.80 -16.00 -16.10 -16.30 -16.40 -16.60 -16.70 -16.80 -17.00 -17.10 -17.30 -17.40 -17.60 -17.70 -17.80 -17.90 -17.90 -17.90 -17.80 -17.80 -17.60 -17.50 -17.30 -17.10 -16.90 -16.70 -16.60 -16.50 -16.40 -16.40 -16.50 -16.60 -16.70 -16.80 -16.90 -17.00 -17.10 -17.10 -17.00 -16.90 -16.60 -16.20 -15.80 -15.30 -14.60 -14.00 -13.30 -12.70 -12.30 -11.90 -11.50 -11.00 -10.50 -10.00 -9.90 -9.60 -9.20 -8.50 -7.50 -6.20 -4.50 -2.00 0.10 1.10 1.10 1.50 1.90 2.30 2.60 3.00 3.50 3.00 3.00 2.90 4.50 3.80 4.60 1.50 0.00 -3.00 -5.50 -7.70 -8.20 -8.00 -8.10 -8.50 -8.90 -9.40 -10.00 -11.20 -12.90 -15.30 -18.70 -23.40 -29.90 -37.20 -44.00 -48.50 -51.70 -54.00 -55.80 -57.40 -58.90 -60.40 -61.80 -63.40 -64.90 -66.50 -68.00 -69.60 -71.20 -72.70 -74.20 -75.60 -77.00 -78.40 -79.70 -80.90 -82.50
-99.00 -99.00 -99.00 -99.00 -99.00 -99.00 -99.00 -99.00 -99.00 -99.00 -99.00 -99.00 -99.00 -99.00 -99.00 -99.00 -99.00 -99.00 -99.00 -99.00 -99.00 -99.00 -99.00 -99.00 -99.00 -99.00 -99.00 -99.00 -99.00 -99.00 -99.00 -99.00 -99.00 -99.00 -99.00 -99.00 -99.00 -99.00 -99.00 -99.00 -99.00 -99.00 -99.00 -99.00 -99.00 -99.00 -99.00 -99.00 -99.00 -99.00 -99.00 -99.00 -99.00 -99.00 -99.00 -99.00 -99.00 -99.00 -99.00 -99.00 -99.00 -99.00 -99.00 -99.00 -99.00 -99.00 -99.00 -99.00 -99.00 -99.00 -99.00 -99.00 -99.00 -99.00 -99.00 -99.00 -99.00 -99.00 -99.00 -99.00 -99.00 -99.00 -99.00 -99.00 -99.00 -99.00 -99.00 -99.00 -99.00 -99.00 -99.00 -99.00 -99.00 -99.00 -99.00 -99.00 -99.00 -99.00 -99.00 -99.00 -99.00 -99.00 -99.00 -99.00 -99.00 -99.00 -99.00 -99.00 -99.00 -99.00 -99.00 -99.00 -99.00 -99.00 -99.00 -99.00 -99.00 -99.00 -99.00 -99.00 -99.00 -99.00 -99.00 -99.00 -99.00 -99.00 -99.00 -99.00 -99.00 -99.00 -99.00 -99.00 -99.00 -99.00 -99.00 -99.00 -99.00 -99.00 -99.00 -99.00 -99.00 -99.00 -99.00 -99.00 -99.00 -99.00 -99.00 -99.00 -99.00 -99.00 -99.00 -99.00 -99.00 -99.00 -99.00 -99.00 -99.00 -99.00 -99.00 -99.00 -99.00 -99.00 -99.00 -99.00 -99.00 -99.00 -99.00 -94.10 -90.80 -87.70 -84.90 -82.80 -81.20 -80.20 -79.40 -78.90 -78.60 -78.40 -78.30 -78.20 -78.20 -78.10 -78.10 -78.10 -78.30 -78.80 -79.50 -80.10 -80.90 -82.20 -83.60 -85.40 -87.40 -89.60 -91.90 -94.30 -99.00 -99.00 -99.00 -99.00 -99.00 -99.00 -99.00 -99.00 -99.00 -99.00 -99.00 -99.00 -99.00 -99.00 -99.00 -99.00 -99.00 -99.00 -99.00 -99.00 -99.00 -99.00 -99.00 -99.00 -99.00 -99.00 -99.00 -99.00 -99.00 -99.00 -99.00 -99.00 -99.00 -99.00 -99.00 -99.00 -99.00 -99.00 -99.00 -99.00 -99.00 -99.00 -99.00 -99.00 -99.00 -99.00 -99.00 -99.00 -99.00 -99.00 -99.00 -99.00 -99.00 -99.00 -99.00 -99.00 -99.00 -99.00 -99.00 -99.00 -99.00 -96.60 -95.00 -93.40 -91.70 -89.80 -87.90 -85.90 -83.80 -81.80 -80.00 -78.30 -76.70 -75.30 -73.80 -72.20 -70.40 -68.70 -67.40 -66.40 -65.30 -63.90 -62.20 -60.60 -59.40 -58.40 -57.60 -56.80 -56.10 -55.60 -55.20 -54.50 -53.20 -51.20 -48.30 -44.60 -40.40 -36.20 -32.20 -28.50 -25.40 -22.90 -20.90 -19.70 -18.80 -18.10 -17.50 -16.90 -16.40 -16.00 -15.60 -15.40 -15.30 -15.20 -15.20 -15.30 -15.40 -15.50 -15.60 -15.80 -16.00 -16.20 -16.40 -16.50 -16.70 -16.90 -17.00 -17.20 -17.30 -17.50 -17.60 -17.80 -17.90 -18.00 -18.10 -18.20 -18.20 -18.10 -18.10 -18.00 -17.80 -17.60 -17.50 -17.30 -17.10 -16.90 -16.80 -16.70 -16.70 -16.80 -16.90 -17.00 -17.20 -17.40 -17.50 -17.70 -17.80 -17.80 -17.70 -17.60 -17.30 -17.00 -16.60 -16.00 -15.40 -14.80 -14.10 -13.60 -13.10 -12.70 -12.20 -11.70 -11.20 -10.70 -10.50 -10.00 -9.90 -9.20 -8.30 -7.10 -5.60 -3.60 -1.10 0.50 1.00 1.40 1.70 1.80 1.70 1.50 1.80 2.00 2.10 0.80 -0.40 1.30 0.90 -1.70 -2.30 -3.90 -3.50 -4.80 -5.30 -5.70 -6.60 -7.70 -8.80 -9.80 -10.50 -11.70 -13.40 -15.90 -19.50 -24.60 -31.50 -38.80 -45.30 -49.40 -52.20 -54.20 -55.80 -57.30 -58.70 -60.10 -61.60 -63.10 -64.70 -66.20 -67.90 -69.50 -71.10 -72.70 -74.30 -75.90 -77.30 -78.70 -80.00 -81.40 -83.10
-99.00 -99.00 -99.00 -99.00 -99.00 -99.00 -99.00 -99.00 -99.00 -99.00 -99.00 -99.00 -99.00 -99.00 -99.00 -99.00 -99.00 -99.00 -99.00 -99.00 -99.00 -99.00 -99.00 -99.00 -99.00 -99.00 -99.00 -99.00 -99.00 -99.00 -99.00 -99.00 -99.00 -99.00 -99.00 -99.00 -99.00 -99.00 -99.00 -99.00 -99.00 -99.00 -99.00 -99.00 -99.00 -99.00 -99.00 -99.00 -99.00 -99.00 -99.00 -99.00 -99.00 -99.00 -99.00 -99.00 -99.00 -99.00 -99.00 -99.00 -99.00 -99.00 -99.00 -99.00 -99.00 -99.00 -99.00 -99.00 -99.00 -99.00 -99.00 -99.00 -99.00 -99.00 -99.00 -99.00 -99.00 -99.00 -99.00 -99.00 -99.00 -99.00 -99.00 -99.00 -99.00 -99.00 -99.00 -99.00 -99.00 -99.00 -99.00 -99.00 -99.00 -99.00 -99.00 -99.00 -99.00 -99.00 -99.00 -99.00 -99.00 -99.00 -99.00 -99.00 -99.00 -99.00 -99.00 -99.00 -99.00 -99.00 -99.00 -99.00 -99.00 -99.00 -99.00 -99.00 -99.00 -99.00 -99.00 -99.00 -99.00 -99.00 -99.00 -99.00 -99.00 -99.00 -99.00 -99.00 -99.00 -99.00 -99.00 -99.00 -99.00 -99.00 -99.00 -99.00 -99.00 -99.00 -99.00 -99.00 -99.00 -99.00 -99.00 -99.00 -99.00 -99.00 -99.00 -99.00 -99.00 -99.00 -99.00 -99.00 -99.00 -99.00 -99.00 -99.00 -99.00 -99.00 -99.00 -99.00 -99.00 -99.00 -99.00 -99.00 -99.00 -99.00 -99.00 -99.00 -93.10 -90.30 -87.80 -85.80 -84.00 -82.60 -81.40 -80.70 -80.40 -80.30 -80.20 -80.20 -80.20 -80.20 -80.30 -80.30 -80.60 -81.10 -82.00 -82.90 -83.90 -85.30 -87.00 -88.80 -90.90 -93.00 -95.20 -99.00 -99.00 -99.00 -99.00 -99.00 -99.00 -99.00 -99.00 -99.00 -99.00 -99.00 -99.00 -99.00 -99.00 -99.00 -99.00 -99.00 -99.00 -99.00 -99.00 -99.00 -99.00 -99.00 -99.00 -99.00 -99.00 -99.00 -99.00 -99.00 -99.00 -99.00 -99.00 -99.00 -99.00 -99.00 -99.00 -99.00 -99.00 -99.00 -99.00 -99.00 -99.00 -99.00 -99.00 -99.00 -99.00 -99.00 -99.00 -99.00 -99.00 -99.00 -99.00 -99.00 -99.00 -99.00 -99.00 -99.00 -99.00 -99.00 -99.00 -99.00 -97.60 -96.20 -94.50 -92.90 -91.10 -89.30 -87.50 -85.50 -83.60 -81.70 -80.00 -78.30 -76.80 -75.40 -74.00 -72.50 -70.80 -69.00 -67.60 -66.50 -65.60 -64.40 -62.90 -61.50 -60.30 -59.30 -58.50 -57.60 -56.90 -56.30 -55.90 -55.30 -54.30 -52.60 -50.30 -47.20 -43.60 -39.60 -35.70 -32.00 -28.70 -25.90 -23.50 -21.80 -20.40 -19.60 -18.70 -17.80 -17.00 -16.40 -16.00 -15.70 -15.50 -15.40 -15.30 -15.40 -15.50 -15.60 -15.70 -15.90 -16.10 -16.40 -16.60 -16.80 -17.00 -17.20 -17.40 -17.50 -17.70 -17.90 -18.00 -18.10 -18.30 -18.40 -18.40 -18.40 -18.40 -18.40 -18.30 -18.10 -18.00 -17.80 -17.60 -17.40 -17.30 -17.10 -17.00 -17.00 -17.00 -17.10 -17.30 -17.50 -17.70 -18.00 -18.20 -18.30 -18.50 -18.50 -18.50 -18.40 -18.10 -17.80 -17.40 -16.90 -16.30 -15.60 -15.00 -14.50 -14.00 -13.50 -13.00 -12.50 -12.00 -11.50 -11.20 -10.70 -10.00 -9.50 -8.70 -7.60 -6.20 -4.50 -2.40 -0.70 0.20 0.60 0.50 0.20 0.00 -0.20 -0.40 -0.90 -1.40 -1.70 -1.70 -1.40 -2.10 -2.70 -0.20 -0.10 -0.30 -1.40 -2.70 -3.90 -5.40 -7.30 -8.90 -10.10 -11.20 -12.50 -14.30 -16.90 -20.60 -26.00 -32.80 -39.90 -46.10 -49.80 -52.30 -54.10 -55.60 -57.00 -58.40 -59.80 -61.30 -62.80 -64.40 -66.00 -67.70 -69.40 -71.10 -72.80 -74.40 -76.10 -77.70 -79.10 -80.30 -81.90 -83.70
-99.00 -99.00 -99.00 -99.00 -99.00 -99.00 -99.00 -99.00 -99.00 -99.00 -99.00 -99.00 -99.00 -99.00 -99.00 -99.00 -99.00 -99.00 -99.00 -99.00 -99.00 -99.00 -99.00 -99.00 -99.00 -99.00 -99.00 -99.00 -99.00 -99.00 -99.00 -99.00 -99.00 -99.00 -99.00 -99.00 -99.00 -99.00 -99.00 -99.00 -99.00 -99.00 -99.00 -99.00 -99.00 -99.00 -99.00 -99.00 -99.00 -99.00 -99.00 -99.00 -99.00 -99.00 -99.00 -99.00 -99.00 -99.00 -99.00 -99.00 -99.00 -99.00 -99.00 -99.00 -99.00 -99.00 -99.00 -99.00 -99.00 -99.00 -99.00 -99.00 -99.00 -99.00 -99.00 -99.00 -99.00 -99.00 -99.00 -99.00 -99.00 -99.00 -99.00 -99.00 -99.00 -99.00 -99.00 -99.00 -99.00 -99.00 -99.00 -99.00 -99.00 -99.00 -99.00 -99.00 -99.00 -99.00 -99.00 -99.00 -99.00 -99.00 -99.00 -99.00 -99.00 -99.00 -99.00 -99.00 -99.00 -99.00 -99.00 -99.00 -99.00 -99.00 -99.00 -99.00 -99.00 -99.00 -99.00 -99.00 -99.00 -99.00 -99.00 -99.00 -99.00 -99.00 -99.00 -99.00 -99.00 -99.00 -99.00 -99.00 -99.00 -99.00 -99.00 -99.00 -99.00 -99.00 -99.00 -99.00 -99.00 -99.00 -99.00 -99.00 -99.00 -99.00 -99.00 -99.00 -99.00 -99.00 -99.00 -99.00 -99.00 -99.00 -99.00 -99.00 -99.00 -99.00 -99.00 -99.00 -99.00 -99.00 -99.00 -99.00 -99.00 -99.00 -99.00 -99.00 -99.00 -93.10 -90.90 -89.20 -87.60 -86.30 -85.10 -84.30 -83.80 -83.60 -83.50 -83.50 -83.60 -83.60 -83.70 -83.80 -84.00 -84.60 -85.40 -86.30 -87.40 -88.80 -90.40 -92.30 -94.20 -96.20 -99.00 -99.00 -99.00 -99.00 -99.00 -99.00 -99.00 -99.00 -99.00 -99.00 -99.00 -99.00 -99.00 -99.00 -99.00 -99.00 -99.00 -99.00 -99.00 -99.00 -99.00 -99.00 -99.00 -99.00 -99.00 -99.00 -99.00 -99.00 -99.00 -99.00 -99.00 -99.00 -99.00 -99.00 -99.00 -99.00 -99.00 -99.00 -99.00 -99.00 -99.00 -99.00 -99.00 -99.00 -99.00 -99.00 -99.00 -99.00 -99.00 -99.00 -99.00 -99.00 -99.00 -99.00 -99.00 -99.00 -99.00 -99.00 -99.00 -99.00 -99.00 -99.00 -97.40 -95.80 -94.10 -92.40 -90.60 -88.80 -87.00 -85.20 -83.40 -81.60 -80.00 -78.40 -76.90 -75.50 -74.10 -72.70 -71.10 -69.40 -67.90 -66.70 -65.70 -64.70 -63.40 -62.10 -61.00 -60.00 -59.10 -58.20 -57.40 -56.80 -56.30 -55.80 -54.90 -53.60 -51.70 -49.20 -46.10 -42.60 -38.90 -35.30 -32.00 -28.90 -26.30 -24.20 -22.50 -21.20 -20.00 -18.80 -17.80 -17.10 -16.50 -16.00 -15.70 -15.60 -15.50 -15.50 -15.60 -15.70 -15.90 -16.10 -16.30 -16.50 -16.80 -17.00 -17.30 -17.50 -17.70 -17.90 -18.10 -18.20 -18.40 -18.50 -18.60 -18.70 -18.70 -18.70 -18.70 -18.60 -18.50 -18.30 -18.10 -18.00 -17.80 -17.60 -17.50 -17.40 -17.30 -17.30 -17.30 -17.50 -17.70 -18.00 -18.30 -18.60 -18.80 -19.00 -19.20 -19.30 -19.30 -19.10 -18.80 -18.50 -18.20 -17.70 -17.10 -16.50 -15.90 -15.40 -14.90 -14.40 -13.90 -13.30 -12.80 -12.20 -11.70 -11.20 -10.50 -9.90 -9.00 -7.80 -6.60 -5.10 -3.80 -2.60 -2.00 -1.70 -1.80 -2.10 -2.30 -2.50 -2.90 -3.50 -4.20 -4.40 -4.00 -3.40 -2.40 -3.20 0.20 1.70 2.80 0.10 -0.80 -3.00 -5.20 -7.50 -9.50 -10.80 -12.10 -13.60 -15.50 -18.10 -21.80 -27.20 -33.70 -40.60 -46.40 -49.70 -51.90 -53.60 -55.10 -56.60 -58.00 -59.40 -60.90 -62.50 -64.10 -65.80 -67.50 -69.20 -71.00 -72.80 -74.50 -76.30 -78.00 -79.70 -81.00 -82.60 -84.40
-99.00 -99.00 -99.00 -99.00 -99.00 -99.00 -99.00 -99.00 -99.00 -99.00 -99.00 -99.00 -99.00 -99.00 -99.00 -99.00 -99.00 -99.00 -99.00 -99.00 -99.00 -99.00 -99.00 -99.00 -99.00 -99.00 -99.00 -99.00 -99.00 -99.00 -99.00 -99.00 -99.00 -99.00 -99.00 -99.00 -99.00 -99.00 -99.00 -99.00 -99.00 -99.00 -99.00 -99.00 -99.00 -99.00 -99.00 -99.00 -99.00 -99.00 -99.00 -99.00 -99.00 -99.00 -99.00 -99.00 -99.00 -99.00 -99.00 -99.00 -99.00 -99.00 -99.00 -99.00 -99.00 -99.00 -99.00 -99.00 -99.00 -99.00 -99.00 -99.00 -99.00 -99.00 -99.00 -99.00 -99.00 -99.00 -99.00 -99.00 -99.00 -99.00 -99.00 -99.00 -99.00 -99.00 -99.00 -99.00 -99.00 -99.00 -99.00 -99.00 -99.00 -99.00 -99.00 -99.00 -99.00 -99.00 -99.00 -99.00 -99.00 -99.00 -99.00 -99.00 -99.00 -99.00 -99.00 -99.00 -99.00 -99.00 -99.00 -99.00 -99.00 -99.00 -99.00 -99.00 -99.00 -99.00 -99.00 -99.00 -99.00 -99.00 -99.00 -99.00 -99.00 -99.00 -99.00 -99.00 -99.00 -99.00 -99.00 -99.00 -99.00 -99.00 -99.00 -99.00 -99.00 -99.00 -99.00 -99.00 -99.00 -99.00 -99.00 -99.00 -99.00 -99.00 -99.00 -99.00 -99.00 -99.00 -99.00 -99.00 -99.00 -99.00 -99.00 -99.00 -99.00 -99.00 -99.00 -99.00 -99.00 -99.00 -99.00 -99.00 -99.00 -99.00 -99.00 -99.00 -99.00 -99.00 -94.20 -92.90 -91.70 -90.60 -89.60 -88.70 -88.10 -87.80 -87.60 -87.60 -87.60 -87.70 -87.80 -87.90 -88.20 -88.60 -89.20 -90.00 -91.00 -92.30 -93.80 -95.50 -99.00 -99.00 -99.00 -99.00 -99.00 -99.00 -99.00 -99.00 -99.00 -99.00 -99.00 -99.00 -99.00 -99.00 -99.00 -99.00 -99.00 -99.00 -99.00 -99.00 -99.00 -99.00 -99.00 -99.00 -99.00 -99.00 -99.00 -99.00 -99.00 -99.00 -99.00 -99.00 -99.00 -99.00 -99.00 -99.00 -99.00 -99.00 -99.00 -99.00 -99.00 -99.00 -99.00 -99.00 -99.00 -99.00 -99.00 -99.00 -99.00 -99.00 -99.00 -99.00 -99.00 -99.00 -99.00 -99.00 -99.00 -99.00 -99.00 -99.00 -99.00 -99.00 -99.00 -99.00 -97.10 -95.50 -93.70 -91.90 -90.20 -88.40 -86.60 -84.90 -83.10 -81.50 -80.00 -78.50 -77.00 -75.60 -74.30 -72.90 -71.40 -69.80 -68.30 -67.00 -65.80 -64.80 -63.70 -62.50 -61.50 -60.50 -59.60 -58.70 -57.90 -57.20 -56.60 -56.10 -55.30 -54.20 -52.60 -50.50 -48.00 -45.00 -41.70 -38.30 -35.00 -31.90 -29.20 -26.80 -24.70 -23.00 -21.40 -20.00 -18.80 -17.80 -17.10 -16.50 -16.10 -15.80 -15.70 -15.70 -15.70 -15.80 -16.00 -16.20 -16.40 -16.70 -17.00 -17.30 -17.50 -17.80 -18.00 -18.20 -18.40 -18.60 -18.70 -18.80 -18.90 -19.00 -19.00 -19.00 -18.90 -18.80 -18.60 -18.50 -18.30 -18.10 -18.00 -17.80 -17.70 -17.60 -17.60 -17.60 -17.70 -17.80 -18.10 -18.50 -18.90 -19.20 -19.40 -19.50 -19.90 -20.00 -20.00 -19.90 -19.50 -19.30 -19.00 -18.60 -18.00 -17.40 -16.80 -16.20 -15.70 -15.20 -14.70 -14.10 -13.40 -12.80 -12.10 -11.40 -10.70 -10.00 -9.10 -8.10 -7.00 -6.00 -5.10 -4.80 -4.70 -4.70 -4.70 -4.80 -4.90 -5.00 -5.20 -5.60 -6.20 -6.20 -5.60 -4.90 -3.50 -1.50 2.90 6.70 2.80 0.80 0.00 -3.00 -5.70 -8.10 -10.10 -11.60 -13.10 -14.70 -16.70 -19.30 -22.70 -27.80 -34.00 -40.70 -46.20 -49.00 -51.10 -52.90 -54.50 -56.10 -57.60 -59.10 -60.60 -62.20 -63.80 -65.50 -67.30 -69.10 -70.90 -72.70 -74.50 -76.30 -78.10 -79.90 -81.50 -83.20 -85.00
-99.00 -99.00 -99.00 -99.00 -99.00 -99.00 -99.00 -99.00 -99.00 -99.00 -99.00 -99.00 -99.00 -99.00 -99.00 -99.00 -99.00 -99.00 -99.00 -99.00 -99.00 -99.00 -99.00 -99.00 -99.00 -99.00 -99.00 -99.00 -99.00 -99.00 -99.00 -99.00 -99.00 -99.00 -99.00 -99.00 -99.00 -99.00 -99.00 -99.00 -99.00 -99.00 -99.00 -99.00 -99.00 -99.00 -99.00 -99.00 -99.00 -99.00 -99.00 -99.00 -99.00 -99.00 -99.00 -99.00 -99.00 -99.00 -99.00 -99.00 -99.00 -99.00 -99.00 -99.00 -99.00 -99.00 -99.00 -99.00 -99.00 -99.00 -99.00 -99.00 -99.00 -99.00 -99.00 -99.00 -99.00 -99.00 -99.00 -99.00 -99.00 -99.00 -99.00 -99.00 -99.00 -99.00 -99.00 -99.00 -99.00 -99.00 -99.00 -99.00 -99.00 -99.00 -99.00 -99.00 -99.00 -99.00 -99.00 -99.00 -99.00 -99.00 -99.00 -99.00 -99.00 -99.00 -99.00 -99.00 -99.00 -99.00 -99.00 -99.00 -99.00 -99.00 -99.00 -99.00 -99.00 -99.00 -99.00 -99.00 -99.00 -99.00 -99.00 -99.00 -99.00 -99.00 -99.00 -99.00 -99.00 -99.00 -99.00 -99.00 -99.00 -99.00 -99.00 -99.00 -99.00 -99.00 -99.00 -99.00 -99.00 -99.00 -99.00 -99.00 -99.00 -99.00 -99.00 -99.00 -99.00 -99.00 -99.00 -99.00 -99.00 -99.00 -99.00 -99.00 -99.00 -99.00 -99.00 -99.00 -99.00 -99.00 -99.00 -99.00 -99.00 -99.00 -99.00 -99.00 -99.00 -99.00 -99.00 -99.00 -99.00 -99.00 -94.20 -93.30 -92.60 -92.20 -92.00 -92.00 -92.00 -92.00 -92.10 -92.20 -92.40 -92.70 -93.10 -93.70 -94.50 -95.50 -99.00 -99.00 -99.00 -99.00 -99.00 -99.00 -99.00 -99.00 -99.00 -99.00 -99.00 -99.00 -99.00 -99.00 -99.00 -99.00 -99.00 -99.00 -99.00 -99.00 -99.00 -99.00 -99.00 -99.00 -99.00 -99.00 -99.00 -99.00 -99.00 -99.00 -99.00 -99.00 -99.00 -99.00 -99.00 -99.00 -99.00 -99.00 -99.00 -99.00 -99.00 -99.00 -99.00 -99.00 -99.00 -99.00 -99.00 -99.00 -99.00 -99.00 -99.00 -99.00 -99.00 -99.00 -99.00 -99.00 -99.00 -99.00 -99.00 -99.00 -99.00 -99.00 -99.00 -99.00 -99.00 -99.00 -96.90 -95.10 -93.30 -91.50 -89.70 -87.90 -86.20 -84.50 -82.90 -81.40 -80.00 -78.60 -77.20 -75.80 -74.40 -73.00 -71.60 -70.20 -68.70 -67.20 -65.90 -64.80 -63.80 -62.70 -61.80 -60.90 -60.00 -59.10 -58.30 -57.60 -56.90 -56.30 -55.50 -54.60 -53.20 -51.50 -49.40 -46.90 -44.00 -40.90 -37.70 -34.70 -31.90 -29.30 -27.00 -25.00 -23.10 -21.50 -20.00 -18.80 -17.80 -17.10 -16.60 -16.20 -16.00 -15.90 -15.90 -16.00 -16.10 -16.30 -16.60 -16.90 -17.20 -17.50 -17.80 -18.00 -18.30 -18.50 -18.70 -18.90 -19.00 -19.10 -19.20 -19.20 -19.20 -19.20 -19.10 -19.00 -18.80 -18.60 -18.40 -18.30 -18.10 -18.00 -17.90 -17.80 -17.80 -17.90 -18.00 -18.20 -18.50 -18.90 -19.40 -19.90 -20.00 -20.00 -20.50 -20.60 -20.60 -20.40 -20.00 -20.00 -19.90 -19.40 -18.90 -18.30 -17.70 -17.10 -16.50 -15.90 -15.40 -14.70 -14.00 -13.20 -12.40 -11.60 -10.80 -9.90 -9.10 -8.30 -7.50 -6.90 -6.70 -6.90 -7.30 -7.40 -7.50 -7.50 -7.60 -7.60 -7.70 -7.90 -8.20 -8.10 -7.40 -6.40 -4.70 -2.20 5.70 7.10 2.80 0.20 -0.50 -3.90 -7.00 -9.20 -10.80 -12.40 -13.90 -15.60 -17.60 -19.90 -22.90 -27.50 -33.50 -40.10 -45.60 -48.00 -50.20 -52.20 -54.10 -55.80 -57.40 -58.90 -60.40 -61.90 -63.60 -65.30 -67.10 -68.90 -70.70 -72.60 -74.40 -76.30 -78.10 -80.00 -81.80 -83.70 -85.60
-99.00 -99.00 -99.00 -99.00 -99.00 -99.00 -99.00 -99.00 -99.00 -99.00 -99.00 -99.00 -99.00 -99.00 -99.00 -99.00 -99.00 -99.00 -99.00 -99.00 -99.00 -99.00 -99.00 -99.00 -99.00 -99.00 -99.00 -99.00 -99.00 -99.00 -99.00 -99.00 -99.00 -99.00 -99.00 -99.00 -99.00 -99.00 -99.00 -99.00 -99.00 -99.00 -99.00 -99.00 -99.00 -99.00 -99.00 -99.00 -99.00 -99.00 -99.00 -99.00 -99.00 -99.00 -99.00 -99.00 -99.00 -99.00 -99.00 -99.00 -99.00 -99.00 -99.00 -99.00 -99.00 -99.00 -99.00 -99.00 -99.00 -99.00 -99.00 -99.00 -99.00 -99.00 -99.00 -99.00 -99.00 -99.00 -99.00 -99.00 -99.00 -99.00 -99.00 -99.00 -99.00 -99.00 -99.00 -99.00 -99.00 -99.00 -99.00 -99.00 -99.00 -99.00 -99.00 -99.00 -99.00 -99.00 -99.00 -99.00 -99.00 -99.00 -99.00 -99.00 -99.00 -99.00 -99.00 -99.00 -99.00 -99.00 -99.00 -99.00 -99.00 -99.00 -99.00 -99.00 -99.00 -99.00 -99.00 -99.00 -99.00 -99.00 -99.00 -99.00 -99.00 -99.00 -99.00 -99.00 -99.00 -99.00 -99.00 -99.00 -99.00 -99.00 -99.00 -99.00 -99.00 -99.00 -99.00 -99.00 -99.00 -99.00 -99.00 -99.00 -99.00 -99.00 -99.00 -99.00 -99.00 -99.00 -99.00 -99.00 -99.00 -99.00 -99.00 -99.00 -99.00 -99.00 -99.00 -99.00 -99.00 -99.00 -99.00 -99.00 -99.00 -99.00 -99.00 -99.00 -99.00 -99.00 -99.00 -99.00 -99.00 -99.00 -99.00 -99.00 -99.00 -99.00 -99.00 -99.00 -99.00 -99.00 -99.00 -99.00 -99.00 -99.00 -99.00 -99.00 -99.00 -99.00 -99.00 -99.00 -99.00 -99.00 -99.00 -99.00 -99.00 -99.00 -99.00 -99.00 -99.00 -99.00 -99.00 -99.00 -99.00 -99.00 -99.00 -99.00 -99.00 -99.00 -99.00 -99.00 -99.00 -99.00 -99.00 -99.00 -99.00 -99.00 -99.00 -99.00 -99.00 -99.00 -99.00 -99.00 -99.00 -99.00 -99.00 -99.00 -99.00 -99.00 -99.00 -99.00 -99.00 -99.00 -99.00 -99.00 -99.00 -99.00 -99.00 -99.00 -99.00 -99.00 -99.00 -99.00 -99.00 -99.00 -99.00 -99.00 -99.00 -99.00 -99.00 -99.00 -99.00 -99.00 -99.00 -99.00 -96.50 -94.80 -92.90 -91.10 -89.30 -87.50 -85.80 -84.20 -82.70 -81.30 -80.00 -78.70 -77.40 -76.00 -74.50 -73.20 -71.80 -70.40 -68.90 -67.50 -66.10 -64.90 -63.80 -62.90 -62.00 -61.20 -60.40 -59.60 -58.70 -58.00 -57.30 -56.60 -55.80 -54.90 -53.70 -52.20 -50.40 -48.30 -45.80 -43.00 -40.10 -37.10 -34.30 -31.70 -29.30 -27.00 -25.00 -23.20 -21.50 -20.00 -18.80 -17.90 -17.20 -16.80 -16.50 -16.30 -16.20 -16.20 -16.30 -16.50 -16.70 -17.00 -17.30 -17.70 -18.00 -18.30 -18.60 -18.80 -19.00 -19.20 -19.30 -19.40 -19.40 -19.40 -19.40 -19.40 -19.20 -19.10 -18.90 -18.70 -18.60 -18.40 -18.30 -18.20 -18.10 -18.10 -18.10 -18.20 -18.40 -18.60 -18.90 -19.40 -20.00 -20.50 -20.80 -21.00 -21.30 -21.50 -21.50 -21.30 -21.00 -20.80 -20.50 -20.10 -19.80 -19.20 -18.50 -17.80 -17.20 -16.60 -15.90 -15.20 -14.40 -13.50 -12.70 -11.80 -10.90 -9.90 -9.20 -8.50 -8.00 -7.80 -8.10 -8.70 -9.40 -9.80 -9.90 -9.90 -9.90 -9.90 -9.90 -9.90 -9.90 -9.70 -9.00 -8.00 -6.20 -3.50 -0.20 1.80 2.20 -0.20 -1.80 -5.30 -8.40 -9.90 -11.20 -12.80 -14.40 -16.10 -18.00 -20.00 -22.10 -26.20 -32.10 -38.80 -44.70 -47.90 -50.30 -52.30 -54.10 -55.70 -57.20 -58.70 -60.20 -61.80 -63.40 -65.10 -66.90 -68.70 -70.60 -72.50 -74.30 -76.20 -78.10 -80.00 -82.00 -84.00 -86.10
-99.00 -99.00 -99.00 -99.00 -99.00 -99.00 -99.00 -99.00 -99.00 -99.00 -99.00 -99.00 -99.00 -99.00 -99.00 -99.00 -99.00 -99.00 -99.00 -99.00 -99.00 -99.00 -99.00 -99.00 -99.00 -99.00 -99.00 -99.00 -99.00 -99.00 -99.00 -99.00 -99.00 -99.00 -99.00 -99.00 -99.00 -99.00 -99.00 -99.00 -99.00 -99.00 -99.00 -99.00 -99.00 -99.00 -99.00 -99.00 -99.00 -99.00 -99.00 -99.00 -99.00 -99.00 -99.00 -99.00 -99.00 -99.00 -99.00 -99.00 -99.00 -99.00 -99.00 -99.00 -99.00 -99.00 -99.00 -99.00 -99.00 -99.00 -99.00 -99.00 -99.00 -99.00 -99.00 -99.00 -99.00 -99.00 -99.00 -99.00 -99.00 -99.00 -99.00 -99.00 -99.00 -99.00 -99.00 -99.00 -99.00 -99.00 -99.00 -99.00 -99.00 -99.00 -99.00 -99.00 -99.00 -99.00 -99.00 -99.00 -99.00 -99.00 -99.00 -99.00 -99.00 -99.00 -99.00 -99.00 -99.00 -99.00 -99.00 -99.00 -99.00 -99.00 -99.00 -99.00 -99.00 -99.00 -99.00 -99.00 -99.00 -99.00 -99.00 -99.00 -99.00 -99.00 -99.00 -99.00 -99.00 -99.00 -99.00 -99.00 -99.00 -99.00 -99.00 -99.00 -99.00 -99.00 -99.00 -99.00 -99.00 -99.00 -99.00 -99.00 -99.00 -99.00 -99.00 -99.00 -99.00 -99.00 -99.00 -99.00 -99.00 -99.00 -99.00 -99.00 -99.00 -99.00 -99.00 -99.00 -99.00 -99.00 -99.00 -99.00 -99.00 -99.00 -99.00 -99.00 -99.00 -99.00 -99.00 -99.00 -99.00 -99.00 -99.00 -99.00 -99.00 -99.00 -99.00 -99.00 -99.00 -99.00 -99.00 -99.00 -99.00 -99.00 -99.00 -99.00 -99.00 -99.00 -99.00 -99.00 -99.00 -99.00 -99.00 -99.00 -99.00 -99.00 -99.00 -99.00 -99.00 -99.00 -99.00 -99.00 -99.00 -99.00 -99.00 -99.00 -99.00 -99.00 -99.00 -99.00 -99.00 -99.00 -99.00 -99.00 -99.00 -99.00 -99.00 -99.00 -99.00 -99.00 -99.00 -99.00 -99.00 -99.00 -99.00 -99.00 -99.00 -99.00 -99.00 -99.00 -99.00 -99.00 -99.00 -99.00 -99.00 -99.00 -99.00 -99.00 -99.00 -99.00 -99.00 -99.00 -99.00 -99.00 -99.00 -99.00 -99.00 -99.00 -99.00 -99.00 -99.00 -99.00 -99.00 -97.60 -96.10 -94.40 -92.60 -90.70 -88.80 -87.10 -85.40 -83.90 -82.50 -81.20 -80.00 -78.70 -77.50 -76.10 -74.70 -73.30 -71.90 -70.60 -69.20 -67.80 -66.40 -65.10 -64.00 -63.00 -62.20 -61.40 -60.70 -60.00 -59.20 -58.50 -57.70 -57.00 -56.20 -55.30 -54.20 -52.90 -51.30 -49.50 -47.30 -44.80 -42.10 -39.30 -36.60 -33.90 -31.50 -29.20 -27.00 -25.00 -23.20 -21.50 -20.10 -18.90 -18.10 -17.50 -17.00 -16.70 -16.50 -16.40 -16.40 -16.60 -16.80 -17.10 -17.50 -17.80 -18.10 -18.50 -18.80 -19.00 -19.20 -19.40 -19.50 -19.60 -19.60 -19.60 -19.60 -19.50 -19.30 -19.20 -19.00 -18.80 -18.70 -18.50 -18.40 -18.40 -18.30 -18.40 -18.50 -18.60 -18.80 -19.00 -19.40 -20.00 -20.70 -21.30 -21.80 -22.20 -22.50 -22.60 -22.60 -22.40 -22.10 -21.80 -21.50 -21.00 -20.60 -20.00 -19.20 -18.60 -17.90 -17.10 -16.40 -15.60 -14.70 -13.90 -13.00 -12.10 -11.10 -10.10 -9.40 -8.80 -8.50 -8.60 -9.10 -9.90 -10.80 -11.30 -11.60 -11.60 -11.60 -11.40 -11.30 -11.20 -11.00 -10.60 -10.10 -9.50 -7.80 -5.20 -2.00 0.00 0.40 -0.90 -3.70 -6.80 -9.40 -10.70 -11.70 -12.90 -14.20 -15.70 -17.40 -18.70 -20.70 -24.30 -30.10 -37.00 -43.50 -47.50 -50.30 -52.40 -54.20 -55.70 -57.20 -58.70 -60.10 -61.70 -63.30 -65.00 -66.80 -68.60 -70.40 -72.30 -74.20 -76.10 -78.00 -80.00 -82.10 -84.20 -86.50
-99.00 -99.00 -99.00 -99.00 -99.00 -99.00 -99.00 -99.00 -99.00 -99.00 -99.00 -99.00 -99.00 -99.00 -99.00 -99.00 -99.00 -99.00 -99.00 -99.00 -99.00 -99.00 -99.00 -99.00 -99.00 -99.00 -99.00 -99.00 -99.00 -99.00 -99.00 -99.00 -99.00 -99.00 -99.00 -99.00 -99.00 -99.00 -99.00 -99.00 -99.00 -99.00 -99.00 -99.00 -99.00 -99.00 -99.00 -99.00 -99.00 -99.00 -99.00 -99.00 -99.00 -99.00 -99.00 -99.00 -99.00 -99.00 -99.00 -99.00 -99.00 -99.00 -99.00 -99.00 -99.00 -99.00 -99.00 -99.00 -99.00 -99.00 -99.00 -99.00 -99.00 -99.00 -99.00 -99.00 -99.00 -99.00 -99.00 -99.00 -99.00 -99.00 -99.00 -99.00 -99.00 -99.00 -99.00 -99.00 -99.00 -99.00 -99.00 -99.00 -99.00 -99.00 -99.00 -99.00 -99.00 -99.00 -99.00 -99.00 -99.00 -99.00 -99.00 -99.00 -99.00 -99.00 -99.00 -99.00 -99.00 -99.00 -99.00 -99.00 -99.00 -99.00 -99.00 -99.00 -99.00 -99.00 -99.00 -99.00 -99.00 -99.00 -99.00 -99.00 -99.00 -99.00 -99.00 -99.00 -99.00 -99.00 -99.00 -99.00 -99.00 -99.00 -99.00 -99.00 -99.00 -99.00 -99.00 -99.00 -99.00 -99.00 -99.00 -99.00 -99.00 -99.00 -99.00 -99.00 -99.00 -99.00 -99.00 -99.00 -99.00 -99.00 -99.00 -99.00 -99.00 -99.00 -99.00 -99.00 -99.00 -99.00 -99.00 -99.00 -99.00 -99.00 -99.00 -99.00 -99.00 -99.00 -99.00 -99.00 -99.00 -99.00 -99.00 -99.00 -99.00 -99.00 -99.00 -99.00 -99.00 -99.00 -99.00 -99.00 -99.00 -99.00 -99.00 -99.00 -99.00 -99.00 -99.00 -99.00 -99.00 -99.00 -99.00 -99.00 -99.00 -99.00 -99.00 -99.00 -99.00 -99.00 -99.00 -99.00 -99.00 -99.00 -99.00 -99.00 -99.00 -99.00 -99.00 -99.00 -99.00 -99.00 -99.00 -99.00 -99.00 -99.00 -99.00 -99.00 -99.00 -99.00 -99.00 -99.00 -99.00 -99.00 -99.00 -99.00 -99.00 -99.00 -99.00 -99.00 -99.00 -99.00 -99.00 -99.00 -99.00 -99.00 -99.00 -99.00 -99.00 -99.00 -99.00 -99.00 -99.00 -99.00 -99.00 -99.00 -99.00 -99.00 -99.00 -99.00 -99.00 -99.00 -99.00 -97.40 -95.80 -94.10 -92.30 -90.30 -88.50 -86.70 -85.10 -83.60 -82.20 -81.00 -79.90 -78.70 -77.50 -76.20 -74.90 -73.50 -72.10 -70.80 -69.40 -68.10 -66.70 -65.40 -64.20 -63.20 -62.30 -61.60 -61.00 -60.40 -59.70 -59.00 -58.30 -57.50 -56.60 -55.70 -54.60 -53.40 -52.00 -50.30 -48.40 -46.20 -43.80 -41.20 -38.60 -36.00 -33.60 -31.30 -29.10 -27.10 -25.10 -23.40 -21.70 -20.30 -19.20 -18.40 -17.70 -17.10 -16.80 -16.60 -16.60 -16.70 -16.90 -17.20 -17.50 -17.90 -18.30 -18.60 -18.90 -19.20 -19.40 -19.60 -19.70 -19.80 -19.80 -19.70 -19.70 -19.50 -19.40 -19.20 -19.00 -18.90 -18.80 -18.70 -18.60 -18.50 -18.50 -18.60 -18.80 -19.00 -19.30 -19.50 -20.00 -20.80 -21.60 -22.40 -23.00 -23.50 -23.80 -23.90 -23.90 -23.70 -23.40 -23.00 -22.60 -22.10 -21.50 -20.80 -20.00 -19.30 -18.50 -17.70 -16.80 -15.90 -15.10 -14.20 -13.40 -12.50 -11.60 -10.80 -9.90 -9.30 -9.10 -9.30 -10.00 -11.00 -11.90 -12.50 -12.80 -12.90 -12.70 -12.50 -12.20 -11.90 -11.50 -11.10 -10.60 -10.30 -9.30 -7.30 -4.60 -2.30 -1.60 -2.90 -5.40 -8.20 -10.00 -11.00 -11.60 -12.30 -13.10 -14.20 -15.40 -16.80 -19.00 -22.50 -27.80 -34.70 -41.80 -46.80 -50.10 -52.40 -54.10 -55.70 -57.10 -58.60 -60.00 -61.60 -63.20 -64.90 -66.60 -68.50 -70.30 -72.20 -74.00 -75.90 -77.90 -80.00 -82.10 -84.40 -86.80
-99.00 -99.00 -99.00 -99.00 -99.00 -99.00 -99.00 -99.00 -99.00 -99.00 -99.00 -99.00 -99.00 -99.00 -99.00 -99.00 -99.00 -99.00 -99.00 -99.00 -99.00 -99.00 -99.00 -99.00 -99.00 -99.00 -99.00 -99.00 -99.00 -99.00 -99.00 -99.00 -99.00 -99.00 -99.00 -99.00 -99.00 -99.00 -99.00 -99.00 -99.00 -99.00 -99.00 -99.00 -99.00 -99.00 -99.00 -99.00 -99.00 -99.00 -99.00 -99.00 -99.00 -99.00 -99.00 -99.00 -99.00 -99.00 -99.00 -99.00 -99.00 -99.00 -99.00 -99.00 -99.00 -99.00 -99.00 -99.00 -99.00 -99.00 -99.00 -99.00 -99.00 -99.00 -99.00 -99.00 -99.00 -99.00 -99.00 -99.00 -99.00 -99.00 -99.00 -99.00 -99.00 -99.00 -99.00 -99.00 -99.00 -99.00 -99.00 -99.00 -99.00 -99.00 -99.00 -99.00 -99.00 -99.00 -99.00 -99.00 -99.00 -99.00 -99.00 -99.00 -99.00 -99.00 -99.00 -99.00 -99.00 -99.00 -99.00 -99.00 -99.00 -99.00 -99.00 -99.00 -99.00 -99.00 -99.00 -99.00 -99.00 -99.00 -99.00 -99.00 -99.00 -99.00 -99.00 -99.00 -99.00 -99.00 -99.00 -99.00 -99.00 -99.00 -99.00 -99.00 -99.00 -99.00 -99.00 -99.00 -99.00 -99.00 -99.00 -99.00 -99.00 -99.00 -99.00 -99.00 -99.00 -99.00 -99.00 -99.00 -99.00 -99.00 -99.00 -99.00 -99.00 -99.00 -99.00 -99.00 -99.00 -99.00 -99.00 -99.00 -99.00 -99.00 -99.00 -99.00 -99.00 -99.00 -99.00 -99.00 -99.00 -99.00 -99.00 -99.00 -99.00 -99.00 -99.00 -99.00 -99.00 -99.00 -99.00 -99.00 -99.00 -99.00 -99.00 -99.00 -99.00 -99.00 -99.00 -99.00 -99.00 -99.00 -99.00 -99.00 -99.00 -99.00 -99.00 -99.00 -99.00 -99.00 -99.00 -99.00 -99.00 -99.00 -99.00 -99.00 -99.00 -99.00 -99.00 -99.00 -99.00 -99.00 -99.00 -99.00 -99.00 -99.00 -99.00 -99.00 -99.00 -99.00 -99.00 -99.00 -99.00 -99.00 -99.00 -99.00 -99.00 -99.00 -99.00 -99.00 -99.00 -99.00 -99.00 -99.00 -99.00 -99.00 -99.00 -99.00 -99.00 -99.00 -99.00 -99.00 -99.00 -99.00 -99.00 -99.00 -99.00 -99.00 -99.00 -99.00 -99.00 -99.00 -99.00 -97.20 -95.60 -93.90 -92.00 -90.00 -88.10 -86.40 -84.70 -83.20 -81.80 -80.70 -79.80 -78.60 -77.50 -76.30 -75.00 -73.70 -72.40 -71.00 -69.70 -68.40 -67.00 -65.70 -64.50 -63.40 -62.60 -61.80 -61.20 -60.60 -60.10 -59.40 -58.70 -58.00 -57.10 -56.20 -55.10 -54.00 -52.60 -51.10 -49.50 -47.50 -45.20 -42.80 -40.40 -38.00 -35.60 -33.40 -31.30 -29.20 -27.30 -25.40 -23.70 -22.10 -20.70 -19.60 -18.50 -17.60 -17.10 -16.80 -16.70 -16.70 -16.90 -17.20 -17.60 -18.00 -18.30 -18.70 -19.10 -19.30 -19.60 -19.70 -19.80 -19.90 -19.80 -19.80 -19.70 -19.50 -19.40 -19.20 -19.00 -18.90 -18.80 -18.70 -18.70 -18.70 -18.70 -18.80 -19.00 -19.40 -19.90 -20.10 -20.90 -21.70 -22.60 -23.50 -24.20 -24.70 -25.10 -25.30 -25.30 -25.10 -24.80 -24.40 -23.80 -23.20 -22.50 -21.70 -20.80 -20.00 -19.20 -18.10 -17.10 -16.20 -15.40 -14.60 -13.80 -13.00 -12.20 -11.20 -10.20 -9.90 -9.90 -10.20 -11.10 -12.20 -13.10 -13.60 -13.90 -13.80 -13.60 -13.20 -12.70 -12.20 -11.60 -11.00 -10.50 -10.40 -10.10 -9.20 -7.30 -5.20 -4.40 -5.00 -6.90 -9.20 -10.40 -10.80 -11.00 -11.20 -11.70 -12.40 -13.40 -14.80 -17.20 -20.90 -26.10 -32.60 -39.80 -45.70 -49.40 -52.00 -53.80 -55.50 -56.90 -58.40 -59.90 -61.40 -63.00 -64.70 -66.50 -68.30 -70.20 -72.00 -73.90 -75.80 -77.80 -80.00 -82.20 -84.60 -87.10
